NCOLS 276
NROWS 32
XLLCORNER 267971.525725
YLLCORNER 4458300
CELLSIZE 25.000000
NODATA_VALUE -32768.000000
1074.00000 1075.00000 1075.00000 1076.00000 1075.00000 1074.00000 1075.00000 1075.00000 1074.00000 1071.00000 1067.00000 1061.00000 1055.00000 1050.00000 1044.00000 1037.00000 1029.00000 1026.00000 1021.00000 1011.00000 1003.00000 995.00000 989.00000 985.00000 984.00000 981.00000 976.00000 971.00000 966.00000 959.00000 954.00000 950.00000 945.00000 940.00000 929.00000 918.00000 901.00000 890.00000 869.00000 836.00000 827.00000 823.00000 822.00000 832.00000 845.00000 860.00000 874.00000 891.00000 907.00000 920.00000 925.00000 930.00000 936.00000 940.00000 947.00000 952.00000 954.00000 951.00000 951.00000 947.00000 942.00000 936.00000 928.00000 921.00000 914.00000 908.00000 903.00000 897.00000 887.00000 876.00000 864.00000 848.00000 840.00000 840.00000 843.00000 847.00000 849.00000 853.00000 852.00000 856.00000 859.00000 861.00000 861.00000 858.00000 854.00000 854.00000 853.00000 852.00000 850.00000 847.00000 842.00000 840.00000 838.00000 837.00000 835.00000 833.00000 829.00000 825.00000 821.00000 816.00000 809.00000 802.00000 798.00000 797.00000 799.00000 801.00000 802.00000 800.00000 796.01648 796.01691 796.01788 799.00201 800.00482 803.00000 811.00000 817.00000 828.00000 842.00000 852.00000 862.00000 871.00000 881.00000 892.00000 903.00000 910.00000 916.00000 924.00000 935.00000 947.00000 954.00000 960.00000 967.00000 977.00000 986.00000 990.00000 993.00000 993.00000 996.00000 1005.00000 1014.00000 1023.00000 1029.00000 1035.00000 1041.00000 1046.00000 1049.00000 1055.00000 1060.00000 1062.00000 1065.00000 1072.00000 1076.00000 1075.00000 1073.00000 1076.00000 1079.00000 1079.00000 1078.00000 1076.00000 1074.00000 1068.00000 1063.00000 1057.00000 1049.00000 1041.00000 1039.00000 1039.00000 1042.00000 1048.00000 1053.00000 1057.00000 1059.00000 1058.00000 1058.00000 1058.00000 1062.00000 1068.00000 1070.00000 1078.00000 1085.00000 1092.00000 1096.00000 1098.00000 1100.00000 1102.00000 1106.00000 1110.00000 1115.00000 1121.00000 1127.00000 1133.00000 1136.00000 1138.00000 1139.00000 1142.00000 1142.00000 1143.00000 1141.00000 1139.00000 1138.00000 1137.00000 1135.00000 1134.00000 1132.00000 1137.00000 1142.00000 1146.00000 1149.00000 1150.00000 1149.00000 1150.00000 1155.00000 1165.00000 1174.00000 1182.00000 1189.00000 1198.00000 1207.00000 1214.00000 1220.00000 1227.00000 1232.00000 1234.00000 1235.00000 1233.00000 1233.00000 1233.00000 1234.00000 1233.00000 1233.00000 1234.00000 1232.00000 1232.00000 1234.00000 1238.00000 1249.00000 1261.00000 1269.00000 1277.00000 1288.00000 1301.00000 1317.00000 1338.00000 1352.00000 1362.00000 1374.00000 1384.00000 1395.00000 1403.00000 1418.00000 1426.00000 1433.00000 1438.00000 1448.00000 1461.00000 1474.00000 1488.00000 1501.00000 1511.00000 1519.00000 1527.00000 1538.00000 1551.00000 1564.00000 1578.00000 1592.00000 1603.00000 1614.00000 1630.00000 1642.00000 1653.00000 1662.00000 1673.00000 1681.00000 1685.00000 1687.00000
1062.00000 1064.00000 1065.00000 1066.00000 1066.00000 1068.00000 1069.00000 1069.00000 1068.00000 1065.00000 1061.00000 1056.00000 1048.00000 1043.00000 1037.00000 1030.00000 1023.00000 1016.00000 1007.00000 996.00000 987.00000 979.00000 975.00000 972.00000 970.00000 969.00000 963.00000 960.00000 959.00000 957.00000 952.00000 948.00000 943.00000 935.00000 923.00000 907.00000 895.00000 884.00000 851.00000 827.00000 819.00806 819.00708 819.00665 829.00000 843.00000 859.00000 872.00000 891.00000 906.00000 916.00000 924.00000 930.00000 934.00000 937.00000 942.00000 946.00000 948.00000 947.00000 945.00000 941.00000 935.00000 927.00000 919.00000 914.00000 909.00000 903.00000 898.00000 892.00000 885.00000 874.00000 864.00000 846.00000 835.00000 834.00000 835.00000 836.00000 838.00000 840.00000 843.00000 846.00000 848.00000 849.00000 848.00000 845.00000 841.00000 839.00000 839.00000 839.00000 839.00000 838.00000 837.00000 837.00000 836.00000 834.00000 833.00000 832.00000 830.00000 826.00000 822.00000 816.00000 808.00000 801.00000 798.00000 796.01306 797.00000 798.00000 798.00000 796.01306 796.01550 797.00000 800.00000 804.00000 809.00000 816.00000 824.00000 840.00000 848.00000 857.00000 868.00000 880.00000 887.00000 897.00000 906.00000 913.00000 920.00000 931.00000 943.00000 957.00000 966.00000 970.00000 977.00000 985.00000 994.00000 1001.00000 1003.00000 1006.00000 1006.00000 1013.00000 1021.00000 1028.00000 1035.00000 1039.00000 1042.00000 1046.00000 1051.00000 1058.00000 1062.00000 1064.00000 1068.00000 1069.00000 1067.00000 1065.00000 1061.00000 1058.00000 1059.00000 1061.00000 1064.00000 1064.00000 1062.00000 1060.00000 1056.00000 1052.00000 1046.00000 1039.00000 1034.00000 1031.00000 1030.00000 1033.00000 1039.00000 1044.00000 1047.00000 1049.00000 1048.00000 1048.00000 1047.00000 1049.00000 1054.00000 1061.00000 1069.00000 1076.00000 1080.00000 1083.00000 1086.00000 1089.00000 1095.00000 1098.00000 1103.00000 1108.00000 1115.00000 1121.00000 1127.00000 1129.00000 1132.00000 1134.00000 1136.00000 1136.00000 1136.00000 1135.00000 1134.00000 1133.00000 1132.00000 1131.00000 1129.00000 1128.00000 1132.00000 1136.00000 1138.00000 1139.00000 1139.00000 1145.00000 1154.00000 1162.00000 1172.00000 1180.00000 1186.00000 1192.00000 1198.00000 1206.00000 1212.00000 1216.00000 1220.00000 1223.00000 1223.00000 1223.00000 1222.00000 1221.00000 1220.00000 1219.00000 1218.00000 1219.00000 1221.00000 1222.00000 1225.00000 1230.00000 1238.00000 1253.00000 1265.00000 1274.00000 1283.00000 1292.00000 1304.00000 1321.00000 1339.00000 1350.00000 1361.00000 1371.00000 1380.00000 1389.00000 1397.00000 1410.00000 1421.00000 1427.00000 1433.00000 1440.00000 1455.00000 1468.00000 1479.00000 1491.00000 1503.00000 1512.00000 1519.00000 1533.00000 1548.00000 1561.00000 1574.00000 1585.00000 1595.00000 1611.00000 1628.00000 1642.00000 1655.00000 1664.00000 1673.00000 1683.00000 1690.00000 1694.00000
1056.00000 1057.00000 1058.00000 1059.00000 1060.00000 1062.00000 1062.00000 1062.00000 1061.00000 1058.00000 1053.00000 1047.00000 1042.00000 1036.00000 1029.00000 1023.00000 1015.00000 1006.00000 994.00000 984.00000 976.00000 971.00000 966.00000 963.00000 960.00000 958.00000 957.00000 958.00000 957.00000 955.00000 950.00000 945.00000 941.00000 930.00000 916.00000 900.00000 890.00000 879.00000 843.00000 820.00000 819.00568 819.00525 819.00568 829.00000 843.00000 855.00000 872.00000 890.00000 904.00000 913.00000 923.00000 926.00000 931.00000 935.00000 938.00000 940.00000 942.00000 942.00000 939.00000 932.00000 925.00000 918.00000 912.00000 907.00000 903.00000 898.00000 892.00000 885.00000 879.00000 873.00000 864.00000 846.00000 835.00000 828.00000 829.00000 830.00000 832.00000 834.00000 836.00000 837.00000 839.00000 839.00000 839.00000 838.00000 837.00000 836.00000 836.00000 835.00000 836.00000 835.00000 835.00000 834.00000 833.00000 832.00000 830.00000 829.00000 828.00000 827.00000 823.00000 817.00000 809.00000 801.00000 798.00000 796.01263 796.01166 796.01263 796.01166 796.01410 798.00000 804.00000 809.00000 814.00000 821.00000 831.00000 843.00000 851.00000 859.00000 870.00000 883.00000 894.00000 902.00000 910.00000 918.00000 926.00000 936.00000 947.00000 958.00000 969.00000 976.00000 983.00000 987.00000 992.00000 1001.00000 1005.00000 1009.00000 1012.00000 1018.00000 1024.00000 1031.00000 1040.00000 1043.00000 1044.00000 1047.00000 1051.00000 1056.00000 1060.00000 1063.00000 1064.00000 1064.00000 1062.00000 1059.00000 1056.00000 1054.00000 1053.00000 1053.00000 1054.00000 1055.00000 1054.00000 1053.00000 1051.00000 1048.00000 1043.00000 1038.00000 1032.00000 1027.00000 1023.00000 1021.00000 1023.00000 1027.00000 1032.00000 1035.00000 1038.00000 1038.00000 1038.00000 1037.00000 1039.00000 1045.00000 1053.00000 1061.00000 1068.00000 1072.00000 1074.00000 1077.00000 1081.00000 1087.00000 1092.00000 1096.00000 1101.00000 1108.00000 1115.00000 1121.00000 1125.00000 1127.00000 1129.00000 1131.00000 1131.00000 1131.00000 1130.00000 1129.00000 1128.00000 1127.00000 1126.00000 1124.00000 1123.00000 1128.00000 1130.00000 1132.00000 1134.00000 1139.00000 1149.00000 1159.00000 1168.00000 1178.00000 1186.00000 1194.00000 1196.00000 1195.00000 1200.00000 1204.00000 1209.00000 1211.00000 1212.00000 1212.00000 1210.00000 1208.00000 1206.00000 1204.00000 1203.00000 1202.00000 1206.00000 1210.00000 1213.00000 1223.00000 1231.00000 1239.00000 1259.00000 1269.00000 1278.00000 1288.00000 1298.00000 1309.00000 1324.00000 1338.00000 1349.00000 1358.00000 1367.00000 1376.00000 1385.00000 1394.00000 1402.00000 1413.00000 1421.00000 1429.00000 1438.00000 1453.00000 1467.00000 1476.00000 1488.00000 1498.00000 1506.00000 1513.00000 1528.00000 1546.00000 1561.00000 1573.00000 1584.00000 1595.00000 1611.00000 1628.00000 1642.00000 1661.00000 1667.00000 1674.00000 1681.00000 1688.00000 1696.00000
1051.00000 1052.00000 1053.00000 1054.00000 1056.00000 1057.00000 1055.00000 1055.00000 1053.00000 1048.00000 1043.00000 1038.00000 1033.00000 1028.00000 1022.00000 1014.00000 1007.00000 999.00000 984.00000 974.00000 967.00000 961.00000 956.00000 955.00000 953.00000 951.00000 953.00000 956.00000 955.00000 953.00000 948.00000 943.00000 936.00000 924.00000 910.00000 896.00000 886.00000 869.00000 839.00000 819.00000 819.00525 819.00427 819.00000 829.00000 841.00000 851.00000 864.00000 885.00000 901.00000 909.00000 918.00000 924.00000 929.00000 931.00000 934.00000 935.00000 936.00000 935.00000 930.00000 924.00000 916.00000 910.00000 905.00000 900.00000 895.00000 891.00000 886.00000 880.00000 874.00000 868.00000 862.00000 845.00000 834.00000 826.00000 824.00000 824.00000 825.00000 829.00000 831.00000 833.00000 837.00000 837.00000 835.00000 834.00000 834.00000 833.00000 832.00000 832.00000 833.00000 833.00000 832.00000 831.00000 830.00000 829.00000 828.00000 826.00000 825.00000 824.00000 823.00000 816.00000 808.00000 800.00000 796.01410 796.01306 796.00781 796.01025 796.01263 799.00000 804.00000 812.00000 818.00000 826.00000 837.00000 845.00000 853.00000 861.00000 873.00000 884.00000 897.00000 905.00000 913.00000 922.00000 929.00000 937.00000 946.00000 956.00000 966.00000 973.00000 983.00000 989.00000 994.00000 999.00000 1003.00000 1008.00000 1012.00000 1017.00000 1022.00000 1029.00000 1036.00000 1041.00000 1043.00000 1047.00000 1050.00000 1052.00000 1056.00000 1059.00000 1061.00000 1060.00000 1058.00000 1055.00000 1051.00000 1049.00000 1048.00000 1047.00000 1047.00000 1047.00000 1047.00000 1046.00000 1045.00000 1043.00000 1039.00000 1035.00000 1030.00000 1025.00000 1019.00000 1015.00000 1014.00000 1013.00000 1016.00000 1019.00000 1023.00000 1026.00000 1029.00000 1032.00000 1032.00000 1035.00000 1039.00000 1046.00000 1053.00000 1060.00000 1065.00000 1067.00000 1072.00000 1077.00000 1082.00000 1086.00000 1090.00000 1097.00000 1103.00000 1111.00000 1115.00000 1119.00000 1122.00000 1124.00000 1126.00000 1126.00000 1126.00000 1125.00000 1124.00000 1123.00000 1122.00000 1121.00000 1118.00000 1117.00000 1122.00000 1126.00000 1131.00000 1137.00000 1146.00000 1155.00000 1166.00000 1174.00000 1183.00000 1193.00000 1189.00000 1188.00000 1189.00000 1192.00000 1196.00000 1202.00000 1202.00000 1201.00000 1199.00000 1198.00000 1196.00000 1195.00000 1194.00000 1194.00000 1194.00000 1195.00000 1205.00000 1216.00000 1226.00000 1233.00000 1243.00000 1262.00000 1271.00000 1280.00000 1292.00000 1303.00000 1312.00000 1324.00000 1335.00000 1345.00000 1354.00000 1363.00000 1373.00000 1381.00000 1389.00000 1398.00000 1406.00000 1413.00000 1426.00000 1435.00000 1448.00000 1464.00000 1473.00000 1484.00000 1495.00000 1505.00000 1514.00000 1527.00000 1545.00000 1561.00000 1573.00000 1585.00000 1596.00000 1614.00000 1630.00000 1644.00000 1661.00000 1667.00000 1673.00000 1678.00000 1686.00000 1695.00000
1047.00000 1048.00000 1049.00000 1050.00000 1051.00000 1052.00000 1050.00000 1047.00000 1045.00000 1040.00000 1035.00000 1031.00000 1026.00000 1020.00000 1012.00000 1003.00000 995.00000 985.00000 974.00000 965.00000 957.00000 949.00000 947.00000 947.00000 947.00000 946.00000 949.00000 952.00000 954.00000 952.00000 947.00000 942.00000 930.00000 919.00000 906.00000 894.00000 884.00000 860.00000 838.00000 819.00665 813.00000 812.00000 819.00281 824.00000 837.00000 849.00000 858.00000 881.00000 899.00000 907.00000 915.00000 922.00000 925.00000 928.00000 929.00000 930.00000 930.00000 928.00000 922.00000 914.00000 908.00000 901.00000 895.00000 890.00000 886.00000 884.00000 880.00000 876.00000 870.00000 864.00000 856.00000 843.00000 832.00000 822.00000 818.00000 818.00000 819.00000 825.00000 827.00000 832.00000 835.00000 834.00000 832.00000 831.00000 830.00000 830.00000 829.00000 830.00000 830.00000 830.00000 829.00000 828.00000 827.00000 826.00000 825.00000 824.00000 823.00000 821.00000 819.00000 813.00000 805.00000 798.00000 796.00739 796.00641 796.00885 796.01123 800.00000 806.00000 813.00000 820.00000 832.00000 843.00000 851.00000 859.00000 866.00000 878.00000 888.00000 899.00000 905.00000 914.00000 922.00000 928.00000 936.00000 944.00000 951.00000 960.00000 967.00000 974.00000 981.00000 987.00000 993.00000 999.00000 1006.00000 1009.00000 1012.00000 1016.00000 1022.00000 1025.00000 1028.00000 1032.00000 1040.00000 1043.00000 1045.00000 1047.00000 1050.00000 1053.00000 1054.00000 1052.00000 1049.00000 1047.00000 1044.00000 1042.00000 1041.00000 1041.00000 1041.00000 1040.00000 1039.00000 1038.00000 1036.00000 1034.00000 1031.00000 1027.00000 1023.00000 1016.00000 1011.00000 1007.00000 1006.00000 1005.00000 1007.00000 1010.00000 1014.00000 1018.00000 1022.00000 1025.00000 1027.00000 1030.00000 1034.00000 1038.00000 1044.00000 1050.00000 1056.00000 1063.00000 1068.00000 1073.00000 1078.00000 1083.00000 1088.00000 1093.00000 1098.00000 1106.00000 1107.00000 1111.00000 1114.00000 1117.00000 1121.00000 1121.00000 1121.00000 1120.00000 1118.00000 1116.00000 1115.00000 1115.00000 1114.00000 1119.00000 1125.00000 1132.00000 1137.00000 1143.00000 1155.00000 1164.00000 1174.00000 1183.00000 1191.00000 1186.00000 1182.00000 1180.00000 1181.00000 1182.00000 1185.00000 1187.00000 1189.00000 1189.00000 1189.00000 1188.00000 1187.00000 1187.00000 1187.00000 1186.00000 1187.00000 1196.00000 1207.00000 1218.00000 1227.00000 1235.00000 1248.00000 1264.00000 1273.00000 1280.00000 1296.00000 1306.00000 1314.00000 1322.00000 1330.00000 1339.00000 1347.00000 1358.00000 1367.00000 1374.00000 1383.00000 1390.00000 1400.00000 1409.00000 1416.00000 1425.00000 1443.00000 1460.00000 1470.00000 1481.00000 1493.00000 1505.00000 1514.00000 1527.00000 1547.00000 1563.00000 1575.00000 1587.00000 1599.00000 1621.00000 1635.00000 1647.00000 1657.00000 1663.00000 1667.00000 1672.00000 1682.00000 1691.00000
1042.00000 1043.00000 1044.00000 1045.00000 1047.00000 1047.00000 1045.00000 1043.00000 1039.00000 1033.00000 1029.00000 1024.00000 1019.00000 1010.00000 1001.00000 994.00000 989.00000 976.00000 966.00000 956.00000 946.00000 938.00000 936.00000 938.00000 940.00000 942.00000 945.00000 948.00000 950.00000 950.00000 945.00000 940.00000 928.00000 916.00000 905.00000 894.00000 884.00000 868.00000 842.00000 825.00000 817.00000 812.00000 811.00000 819.00140 831.00000 844.00000 855.00000 872.00000 891.00000 903.00000 911.00000 919.00000 922.00000 923.00000 924.00000 924.00000 923.00000 920.00000 910.00000 902.00000 896.00000 890.00000 885.00000 880.00000 877.00000 875.00000 871.00000 867.00000 864.00000 860.00000 848.00000 837.00000 825.00000 818.00000 815.00000 813.00000 815.00000 821.00000 826.00000 831.00000 833.00000 830.00000 828.00000 828.00000 827.00000 826.00000 826.00000 828.00000 828.00000 827.00000 826.00000 825.00000 825.00000 823.00000 822.00000 821.00000 818.00000 813.00000 812.00000 806.00000 800.00000 796.00598 796.00500 796.00543 797.00000 800.00000 806.00000 813.00000 820.00000 839.00000 850.00000 859.00000 864.00000 872.00000 880.00000 890.00000 900.00000 903.00000 910.00000 917.00000 925.00000 933.00000 940.00000 947.00000 951.00000 957.00000 963.00000 970.00000 975.00000 982.00000 987.00000 991.00000 999.00000 1004.00000 1008.00000 1010.00000 1016.00000 1019.00000 1016.00000 1023.00000 1028.00000 1033.00000 1037.00000 1041.00000 1043.00000 1045.00000 1046.00000 1044.00000 1041.00000 1038.00000 1035.00000 1033.00000 1031.00000 1030.00000 1029.00000 1029.00000 1029.00000 1027.00000 1026.00000 1024.00000 1021.00000 1017.00000 1008.00000 1001.00000 1000.00000 999.00000 998.00000 999.00000 1000.00000 1003.00000 1007.00000 1012.00000 1015.00000 1018.00000 1022.00000 1025.00000 1029.00000 1032.00000 1036.00000 1039.00000 1045.00000 1056.00000 1063.00000 1068.00000 1073.00000 1078.00000 1082.00000 1085.00000 1091.00000 1095.00000 1097.00000 1102.00000 1104.00000 1106.00000 1109.00000 1108.00000 1104.00000 1104.00000 1107.00000 1107.00000 1108.00000 1112.00000 1118.00000 1126.00000 1133.00000 1138.00000 1146.00000 1157.00000 1167.00000 1176.00000 1187.00000 1185.00000 1179.00000 1176.00000 1173.00000 1172.00000 1172.00000 1173.00000 1174.00000 1175.00000 1177.00000 1178.00000 1178.00000 1179.00000 1179.00000 1179.00000 1179.00000 1179.00000 1185.00000 1198.00000 1209.00000 1220.00000 1229.00000 1238.00000 1252.00000 1265.00000 1273.00000 1281.00000 1297.00000 1306.00000 1314.00000 1322.00000 1329.00000 1334.00000 1339.00000 1348.00000 1359.00000 1368.00000 1376.00000 1383.00000 1391.00000 1399.00000 1407.00000 1416.00000 1434.00000 1454.00000 1468.00000 1478.00000 1494.00000 1505.00000 1515.00000 1530.00000 1549.00000 1565.00000 1578.00000 1591.00000 1606.00000 1621.00000 1637.00000 1644.00000 1649.00000 1656.00000 1658.00000 1661.00000 1672.00000 1685.00000
1036.00000 1037.00000 1039.00000 1041.00000 1042.00000 1042.00000 1040.00000 1036.00000 1031.00000 1027.00000 1023.00000 1015.00000 1004.00000 998.00000 993.00000 985.00000 978.00000 967.00000 957.00000 949.00000 940.00000 935.00000 930.00000 933.00000 935.00000 939.00000 942.00000 944.00000 947.00000 949.00000 945.00000 940.00000 929.00000 917.00000 906.00000 895.00000 885.00000 869.00000 850.00000 835.00000 824.00000 814.00000 810.00281 812.00000 819.00000 838.00000 851.00000 864.00000 883.00000 900.00000 908.00000 913.00000 916.00000 917.00000 917.00000 916.00000 912.00000 905.00000 896.00000 890.00000 884.00000 878.00000 871.00000 869.00000 867.00000 865.00000 862.00000 859.00000 854.00000 848.00000 838.00000 830.00000 819.00000 815.00000 812.00000 812.00000 817.00000 820.00000 825.00000 830.00000 830.00000 827.00000 825.00000 824.00000 823.00000 823.00000 824.00000 826.00000 825.00000 824.00000 823.00000 823.00000 822.00000 821.00000 816.00000 812.00000 807.00000 804.00000 804.00000 800.00000 797.00000 796.00500 796.00403 796.00641 799.00000 809.00000 814.00000 820.00000 839.00000 856.00000 862.00000 868.00000 873.00000 881.00000 890.00000 899.00000 903.00000 909.00000 914.00000 918.00000 923.00000 931.00000 937.00000 941.00000 945.00000 952.00000 956.00000 962.00000 966.00000 972.00000 977.00000 983.00000 988.00000 993.00000 1000.00000 1002.00000 1007.00000 1011.00000 1010.00000 1015.00000 1018.00000 1023.00000 1029.00000 1035.00000 1036.00000 1038.00000 1038.00000 1036.00000 1033.00000 1029.00000 1025.00000 1023.00000 1021.00000 1019.00000 1017.00000 1017.00000 1017.00000 1016.00000 1015.00000 1013.00000 1006.00000 1000.00000 996.00000 993.00000 992.00000 993.00000 992.00000 995.00000 996.00000 998.00000 1000.00000 1005.00000 1008.00000 1011.00000 1015.00000 1019.00000 1023.00000 1026.00000 1029.00000 1033.00000 1038.00000 1045.00000 1055.00000 1063.00000 1068.00000 1071.00000 1072.00000 1077.00000 1080.00000 1081.00000 1085.00000 1088.00000 1092.00000 1094.00000 1096.00000 1093.00000 1096.00000 1101.00000 1106.00000 1110.00000 1114.00000 1119.00000 1127.00000 1135.00000 1142.00000 1155.00000 1164.00000 1173.00000 1182.00000 1171.00000 1179.00000 1174.00000 1170.00000 1166.00000 1165.00000 1164.00000 1163.00000 1164.00000 1165.00000 1166.00000 1169.00000 1170.00000 1170.00000 1170.00000 1170.00000 1172.00000 1172.00000 1175.00586 1180.00000 1200.00000 1210.00000 1220.00000 1229.00000 1239.00000 1253.00000 1264.00000 1273.00000 1282.00000 1293.00000 1301.00000 1309.00000 1317.00000 1324.00000 1327.00000 1332.00000 1337.00000 1348.00000 1359.00000 1367.00000 1375.00000 1383.00000 1391.00000 1401.00000 1411.00000 1427.00000 1450.00000 1466.00000 1477.00000 1493.00000 1508.00000 1516.00000 1533.00000 1553.00000 1568.00000 1581.00000 1595.00000 1608.00000 1621.00000 1631.00000 1636.00000 1642.00000 1648.00000 1651.00000 1654.00000 1661.00000 1672.00000
1028.00000 1030.00000 1032.00000 1034.00000 1036.00000 1033.00000 1029.00000 1026.00000 1022.00000 1017.00000 1009.00000 999.00000 995.00000 991.00000 985.00000 978.00000 968.00000 958.00000 950.00000 943.00000 934.00000 931.00000 926.00000 927.00000 930.00000 934.00000 938.00000 941.00000 943.00000 947.00000 944.00000 941.00000 931.00000 920.00000 909.00000 897.00000 886.00000 869.00000 851.00000 842.00000 830.00000 817.00000 810.00244 810.00140 815.00000 828.00000 844.00000 856.00000 873.00000 891.00000 902.00000 907.00000 910.00000 909.00000 908.00000 904.00000 900.00000 892.00000 883.00000 876.00000 869.00000 863.00000 859.00000 858.00000 857.00000 855.00000 851.00000 847.00000 843.00000 838.00000 830.00000 822.00000 817.00000 812.00000 808.00000 811.00000 816.00000 821.00000 825.00000 829.00000 827.00000 824.00000 821.00000 821.00000 820.00000 819.00000 822.00000 823.00000 822.00000 821.00000 821.00000 819.00000 815.00000 809.00000 803.00000 800.00000 798.00000 797.00000 798.00000 796.00000 796.00098 796.00201 796.00299 798.00000 805.00000 817.00000 829.00000 843.00000 859.00000 863.00000 866.00000 871.00000 878.00000 883.00000 892.00000 897.00000 902.00000 906.00000 909.00000 912.00000 919.00000 926.00000 929.00000 932.00000 935.00000 937.00000 940.00000 949.00000 955.00000 961.00000 966.00000 970.00000 973.00000 977.00000 982.00000 991.00000 997.00000 1002.00000 1004.00000 1008.00000 1013.00000 1017.00000 1024.00000 1029.00000 1030.00000 1031.00000 1030.00000 1028.00000 1025.00000 1021.00000 1015.00000 1009.00000 1006.00000 1004.00000 1003.00000 1003.00000 1002.00000 1001.00000 1001.00000 999.00000 996.00000 991.00000 988.00000 985.00000 985.00000 986.00000 989.00000 991.00000 993.00000 995.00000 997.00000 999.00000 1001.00000 1004.00000 1007.00000 1011.00000 1015.00000 1020.00000 1024.00000 1028.00000 1033.00000 1040.00000 1048.00000 1056.00000 1062.00000 1063.00000 1063.00000 1065.00000 1065.00000 1069.00000 1075.00000 1077.00000 1082.00000 1086.00000 1091.00000 1098.00000 1103.00000 1110.00000 1115.00000 1120.00000 1128.00000 1136.00000 1145.00000 1157.00000 1164.00000 1173.00000 1180.00000 1187.00000 1184.00000 1174.00000 1168.00000 1162.00000 1158.00000 1151.00000 1146.00000 1143.00000 1141.00000 1149.00000 1153.00000 1157.00000 1160.00000 1162.00000 1162.00000 1162.00000 1163.00000 1165.00000 1169.00000 1175.00488 1179.00000 1193.00000 1207.00000 1217.00000 1228.00000 1239.00000 1250.00000 1261.00000 1269.00000 1279.00000 1287.00000 1294.00000 1299.00000 1307.00000 1313.00000 1319.00000 1321.00000 1325.00000 1334.00000 1344.00000 1357.00000 1366.00000 1374.00000 1383.00000 1393.00000 1404.00000 1419.00000 1444.00000 1462.00000 1474.00000 1492.00000 1506.00000 1517.00000 1533.00000 1553.00000 1569.00000 1582.00000 1596.00000 1607.00000 1617.00000 1623.00000 1627.00000 1629.00000 1641.00000 1644.00000 1647.00000 1654.00000 1666.00000
1021.00000 1023.00000 1024.00000 1025.00000 1023.00000 1021.00000 1017.00000 1013.00000 1009.00000 1002.00000 997.00000 992.00000 987.00000 983.00000 976.00000 967.00000 958.00000 952.00000 945.00000 935.00000 925.00000 922.00000 921.00000 921.00000 925.00000 928.00000 931.00000 935.00000 940.00000 943.00000 944.00000 942.00000 936.00000 925.00000 916.00000 902.00000 888.00000 871.00000 855.00000 844.00000 832.00000 819.00000 810.00000 802.00000 810.00000 820.00000 836.00000 850.00000 864.00000 881.00000 892.00000 901.00000 902.00000 902.00000 897.00000 891.00000 884.00000 877.00000 872.00000 865.00000 859.00000 853.00000 851.00000 848.00000 847.00000 844.00000 839.00000 836.00000 833.00000 829.00000 824.00000 817.00000 812.00000 808.00000 807.00000 813.00000 818.00000 821.00000 825.00000 825.00000 822.00000 819.00000 814.00000 813.00000 812.00000 811.00000 817.00000 820.00000 818.00000 813.00000 808.00000 804.00000 800.00000 797.00000 795.00000 793.00000 793.00098 793.00201 793.00299 793.00403 796.00201 796.00299 798.00000 805.00000 815.00000 827.00000 842.00000 857.00000 864.00000 868.00000 871.00000 876.00000 878.00000 883.00000 887.00000 892.00000 896.00000 900.00000 903.00000 908.00000 913.00000 916.00000 919.00000 922.00000 924.00000 924.00000 927.00000 933.00000 936.00000 940.00000 947.00000 955.00000 962.00000 966.00000 971.00000 977.00000 984.00000 991.00000 998.00000 1003.00000 1008.00000 1013.00000 1019.00000 1023.00000 1024.00000 1025.00000 1024.00000 1021.00000 1018.00000 1013.00000 1006.00000 998.00000 994.00000 992.00000 991.00000 991.00000 991.00000 990.00000 990.00000 988.00000 986.00000 982.00000 980.00000 977.00000 978.00000 982.00000 985.00000 987.00000 989.00000 991.00000 993.00000 994.00000 996.00000 998.00000 998.00000 1003.00000 1009.00000 1014.00000 1019.00000 1024.00000 1030.00000 1036.00000 1043.00000 1050.00000 1055.00000 1056.00000 1056.00000 1056.00000 1058.00000 1069.00000 1077.00000 1089.00000 1094.00000 1098.00000 1102.00000 1108.00000 1115.00000 1123.00000 1131.00000 1139.00000 1148.00000 1157.00000 1165.00000 1175.00000 1181.00000 1183.00000 1186.00000 1183.00000 1173.00000 1160.00000 1153.00000 1145.00000 1139.00000 1137.00000 1136.00000 1136.00000 1137.00000 1138.00000 1141.00000 1147.00000 1150.00000 1154.00000 1152.00000 1156.00000 1160.00000 1163.00000 1167.00000 1175.00378 1176.00000 1184.00000 1198.00000 1210.00000 1223.00000 1233.00000 1245.00000 1255.00000 1265.00000 1271.00000 1280.00000 1287.00000 1291.00000 1295.00000 1298.00000 1303.00000 1307.00000 1313.00000 1319.00000 1332.00000 1343.00000 1355.00000 1366.00000 1379.00000 1390.00000 1401.00000 1415.00000 1440.00000 1461.00000 1473.00000 1489.00000 1505.00000 1517.00000 1532.00000 1553.00000 1569.00000 1581.00000 1591.00000 1600.00000 1606.00000 1614.00000 1616.00000 1618.00000 1623.00000 1630.00000 1638.00000 1646.00000 1657.00000
1015.00000 1015.00000 1014.00000 1014.00000 1013.00000 1010.00000 1006.00000 1001.00000 997.00000 993.00000 989.00000 984.00000 979.00000 973.00000 966.00000 958.00000 952.00000 945.00000 934.00000 921.00000 917.00000 915.00000 914.00000 915.00000 917.00000 920.00000 925.00000 930.00000 935.00000 940.00000 942.00000 941.00000 937.00000 927.00000 917.00000 905.00000 891.00000 871.00000 859.00000 848.00000 837.00000 821.00000 809.00000 800.00000 805.00000 814.00000 828.00000 843.00000 857.00000 871.00000 879.00000 887.00000 891.00000 890.00000 885.00000 878.00000 874.00000 868.00000 863.00000 857.00000 850.00000 846.00000 843.00000 840.00000 836.00000 834.00000 831.00000 828.00000 824.00000 821.00000 817.00000 813.00000 808.00000 803.00000 805.00000 812.00000 819.00000 823.00000 824.00000 823.00000 817.00000 811.00000 807.00000 805.00000 804.00000 804.00000 805.00000 805.00000 800.00000 798.00000 796.00000 795.00000 793.00000 792.00244 792.00281 792.00385 793.00201 794.00000 795.00000 796.00000 798.00000 800.00000 807.00000 818.00000 828.00000 841.00000 850.00000 861.00000 865.00000 866.00000 867.00000 869.00000 871.00000 876.00000 881.00000 884.00000 888.00000 892.00000 895.00000 899.00000 903.00000 906.00000 909.00000 913.00000 913.00000 914.00000 915.00000 919.00000 923.00000 927.00000 932.00000 938.00000 946.00000 953.00000 961.00000 965.00000 974.00000 982.00000 990.00000 996.00000 1002.00000 1008.00000 1012.00000 1015.00000 1017.00000 1017.00000 1017.00000 1014.00000 1011.00000 1006.00000 1001.00000 992.00000 987.00000 984.00000 980.00000 979.00000 979.00000 979.00000 979.00000 978.00000 976.00000 976.00000 975.00000 973.00000 974.00000 978.00000 982.00000 984.00000 986.00000 988.00000 989.00000 990.00000 992.00000 993.00000 994.00000 1000.00000 1006.00000 1011.00000 1016.00000 1020.00000 1026.00000 1032.00000 1039.00000 1046.00000 1049.00000 1051.00000 1051.00000 1052.00000 1058.00000 1079.00000 1092.00000 1101.00000 1104.00000 1108.00000 1114.00000 1122.00000 1131.00000 1139.00000 1150.00000 1160.00000 1166.00000 1174.00000 1181.00000 1182.00000 1185.00000 1187.00000 1183.00000 1173.00000 1159.00000 1150.00000 1141.00000 1137.00000 1134.00000 1132.00000 1131.00000 1132.00000 1133.00000 1135.00000 1138.00000 1140.00000 1143.00000 1147.00000 1152.00000 1158.00000 1162.00000 1164.00000 1165.00000 1168.00000 1175.00244 1177.00000 1182.00000 1191.00000 1210.00000 1223.00000 1232.00000 1241.00000 1254.00000 1264.00000 1271.00000 1277.00000 1282.00000 1285.00000 1288.00000 1293.00000 1298.00000 1303.00000 1312.00000 1321.00000 1333.00000 1346.00000 1360.00000 1378.00000 1390.00000 1401.00000 1415.00000 1436.00000 1459.00000 1472.00000 1488.00000 1506.00000 1520.00000 1534.00000 1549.00000 1565.00000 1575.00000 1584.00000 1589.00000 1595.00000 1602.00000 1605.00000 1608.00000 1611.00000 1616.00000 1626.00000 1636.00000 1647.00000
1007.00000 1006.00000 1003.00000 1003.00000 1002.00000 1001.00000 997.00000 992.00000 989.00000 985.00000 982.00000 976.00000 968.00000 962.00000 957.00000 951.00000 944.00000 935.00000 919.00000 914.00000 910.00000 908.00000 907.00000 908.00000 910.00000 914.00000 918.00000 923.00000 928.00000 933.00000 938.00000 939.00000 932.00000 924.00000 914.00000 905.00000 891.00000 874.00000 861.00000 851.00000 841.00000 825.00000 807.00000 798.00000 800.00000 811.00000 824.00000 838.00000 849.00000 861.00000 869.00000 875.00000 877.00000 878.00000 873.00000 867.00000 864.00000 860.00000 854.00000 848.00000 841.00000 838.00000 834.00000 829.00000 826.00000 823.00000 821.00000 819.00000 817.00000 815.00000 811.00000 807.00000 803.00000 800.00000 803.00000 813.00000 821.00000 822.00000 821.00000 820.00000 808.00000 802.00000 798.00000 795.00000 794.00000 794.00000 794.00000 793.00000 791.00000 789.00000 788.00000 788.00098 788.00201 792.00140 792.00385 795.00000 797.00000 799.00000 800.00000 802.00000 807.00000 813.00000 820.00000 835.00000 846.00000 853.00000 849.00000 860.00000 861.00000 861.00000 861.00000 862.00000 864.00000 868.00000 871.00000 875.00000 880.00000 882.00000 884.00000 887.00000 891.00000 895.00000 900.00000 903.00000 904.00000 905.00000 906.00000 910.00000 911.00000 915.00000 920.00000 926.00000 932.00000 938.00000 946.00000 951.00000 957.00000 964.00000 976.00000 985.00000 993.00000 999.00000 1003.00000 1006.00000 1006.00000 1007.00000 1007.00000 1006.00000 1004.00000 1000.00000 992.00000 986.00000 980.00000 975.00000 970.00000 970.00000 970.00000 967.00000 966.00000 969.00000 967.00000 970.00000 970.00000 968.00000 969.00000 973.00000 977.00000 980.00000 982.00000 983.00000 984.00000 986.00000 988.00000 991.00000 995.00000 1000.00000 1005.00000 1009.00000 1013.00000 1017.00000 1023.00000 1030.00000 1036.00000 1041.00000 1043.00000 1045.00000 1045.00000 1053.00000 1066.00000 1090.00000 1102.00000 1108.00000 1113.00000 1118.00000 1126.00000 1135.00000 1143.00000 1154.00000 1163.00000 1170.00000 1178.00000 1181.00000 1183.00000 1186.00000 1185.00000 1182.00000 1174.00000 1161.00000 1150.00000 1141.00000 1136.00000 1133.00000 1129.00000 1127.00000 1131.00000 1134.00000 1137.00000 1138.00000 1141.00000 1145.00000 1149.00000 1153.00000 1156.00000 1162.00000 1165.00000 1168.00000 1169.00000 1170.00000 1175.00146 1175.00244 1175.00342 1179.00000 1188.00000 1205.00000 1215.00000 1223.00000 1241.00000 1252.00000 1259.00000 1265.00000 1270.00000 1274.00000 1277.00000 1284.00000 1291.00000 1297.00000 1305.00000 1316.00000 1328.00000 1342.00000 1356.00000 1374.00000 1389.00000 1401.00000 1416.00000 1435.00000 1457.00000 1472.00000 1487.00000 1506.00000 1520.00000 1533.00000 1549.00000 1557.00000 1566.00000 1572.00000 1578.00000 1583.00000 1588.00000 1591.00000 1596.00000 1603.00000 1609.00000 1616.00000 1626.00000 1636.00000
998.00000 997.00000 991.00000 992.00000 991.00000 989.00000 987.00000 984.00000 981.00000 976.00000 971.00000 964.00000 958.00000 953.00000 948.00000 942.00000 930.00000 917.00000 912.00000 908.00000 903.00000 901.00000 900.00000 900.00000 902.00000 905.00000 910.00000 916.00000 921.00000 926.00000 929.00000 932.00000 930.00000 921.00000 913.00000 905.00000 891.00000 877.00000 863.00000 853.00000 844.00000 830.00000 809.00000 797.00000 797.00000 805.00000 822.00000 834.00000 842.00000 852.00000 859.00000 864.00000 868.00000 867.00000 863.00000 858.00000 854.00000 851.00000 845.00000 839.00000 833.00000 828.00000 824.00000 818.00000 812.00000 809.00000 806.00000 811.00000 810.00000 808.00000 806.00000 802.00000 798.00000 796.00000 799.00000 810.00000 820.00000 820.00000 817.00000 807.00000 797.00000 792.00000 788.00000 784.00000 782.00000 782.00000 784.00000 784.00098 784.00201 784.00299 786.00000 789.00000 792.00000 795.00000 799.00000 802.00000 807.00000 809.00000 812.00000 816.00000 820.00000 831.00000 844.00000 858.00000 863.00000 853.00000 860.00000 850.00000 856.00000 856.00000 856.00000 856.00000 858.00000 859.00000 860.00000 863.00000 867.00000 871.00000 873.00000 875.00000 878.00000 883.00000 887.00000 890.00000 892.00000 894.00000 898.00000 900.00000 902.00000 904.00000 906.00000 911.00000 920.00000 926.00000 931.00000 937.00000 943.00000 949.00000 957.00000 967.00000 975.00000 983.00000 992.00000 996.00000 997.00000 998.00000 998.00000 997.00000 995.00000 988.00000 981.00000 975.00000 969.00000 964.00000 960.00000 961.00000 961.00000 956.00000 957.00000 959.00000 962.00000 965.00000 965.00000 964.00000 964.00000 968.00000 971.00000 973.00000 977.00000 978.00000 981.00000 983.00000 987.00000 991.00000 994.00000 998.00000 1002.00000 1006.00000 1009.00000 1014.00000 1020.00000 1026.00000 1030.00000 1035.00000 1037.00000 1038.00000 1041.00000 1055.00000 1077.00000 1097.00000 1107.00000 1113.00000 1119.00000 1126.00000 1135.00000 1145.00000 1152.00000 1162.00000 1170.00000 1178.00000 1181.00000 1183.00000 1185.00000 1184.00000 1182.00000 1177.00000 1165.00000 1152.00000 1141.00000 1135.00000 1132.00000 1128.00000 1125.00000 1129.00000 1134.00000 1137.00000 1141.00000 1146.00000 1151.00000 1154.00000 1156.00000 1159.00000 1164.00000 1167.00000 1170.00000 1172.00000 1174.00000 1175.00000 1177.00000 1178.00000 1180.00000 1180.00000 1182.00000 1190.00000 1202.00000 1213.00000 1227.00000 1241.00000 1249.00000 1255.00000 1259.00000 1263.00000 1268.00000 1280.00000 1287.00000 1296.00000 1305.00000 1315.00000 1327.00000 1341.00000 1355.00000 1373.00000 1389.00000 1401.00000 1416.00000 1434.00000 1456.00000 1471.00000 1487.00000 1506.00000 1520.00000 1533.00000 1544.00000 1551.00000 1556.00000 1560.00000 1565.00000 1570.00000 1572.00000 1578.00000 1584.00000 1593.00000 1601.00000 1608.00000 1614.00000 1622.00000
986.00000 985.00000 983.00000 981.00000 979.00000 978.00000 976.00000 974.00000 970.00000 964.00000 959.00000 954.00000 948.00000 943.00000 937.00000 926.00000 915.00000 908.00000 903.00000 900.00000 897.00000 895.00000 893.00000 894.00000 896.00000 898.00000 901.00000 907.00000 912.00000 918.00000 921.00000 925.00000 924.00000 919.00000 912.00000 904.00000 894.00000 880.00000 866.00000 855.00000 847.00000 835.00000 813.00000 799.00000 795.00201 798.00000 816.00000 827.00000 834.00000 840.00000 848.00000 853.00000 856.00000 855.00000 852.00000 850.00000 845.00000 841.00000 836.00000 831.00000 825.00000 819.00000 812.00000 806.00000 799.00000 798.00000 800.00000 803.00000 803.00000 802.00000 799.00000 796.00000 793.00000 793.00000 798.00000 808.00000 813.00000 809.00000 804.00000 795.00000 788.00000 783.00000 780.00000 780.00098 780.00201 780.00385 781.00000 785.00000 788.00000 792.00000 794.00000 796.00000 799.00000 806.00000 812.00000 816.00000 819.00000 820.00000 828.00000 837.00000 844.00000 856.00000 864.00000 869.00000 870.00000 866.00000 856.00000 845.00000 849.00000 850.00000 850.00000 851.00000 853.00000 854.00000 855.00000 856.00000 858.00000 860.00000 863.00000 862.00000 862.00000 863.00000 863.00000 875.00000 878.00000 880.00000 882.00000 883.00000 886.00000 891.00000 894.00000 896.00000 902.00000 909.00000 915.00000 922.00000 929.00000 935.00000 944.00000 954.00000 964.00000 971.00000 981.00000 987.00000 990.00000 990.00000 990.00000 988.00000 982.00000 976.00000 969.00000 963.00000 957.00000 949.00000 946.00000 949.00000 951.00000 949.00000 956.00140 956.00244 956.00482 959.00000 960.00000 960.00000 961.00000 964.00000 965.00000 969.00000 972.00000 975.00000 979.00000 981.00000 984.00000 987.00000 991.00000 995.00000 998.00000 1001.00000 1004.00000 1010.00000 1014.00000 1021.00000 1024.00000 1026.00000 1027.00000 1032.00000 1042.00000 1059.00000 1080.00000 1097.00000 1108.00000 1116.00000 1124.00000 1132.00000 1139.00000 1148.00000 1156.00000 1165.00000 1174.00000 1180.00000 1182.00000 1184.00000 1184.00000 1182.00000 1179.00000 1167.00000 1154.00000 1141.00000 1131.00000 1124.00000 1121.00000 1122.00000 1129.00000 1133.00000 1137.00000 1142.00000 1150.00000 1156.00000 1161.00000 1163.00000 1165.00000 1172.00000 1175.00000 1175.00000 1177.00000 1177.00000 1178.00000 1180.00000 1184.00000 1184.00000 1184.00000 1183.00000 1183.00000 1190.00000 1198.00000 1206.00000 1219.00000 1230.00000 1241.00000 1245.00000 1249.00000 1254.00000 1262.00000 1276.00000 1286.00000 1295.00000 1305.00000 1315.00000 1327.00000 1341.00000 1354.00000 1373.00000 1388.00000 1401.00000 1419.00000 1434.00000 1455.00000 1470.00000 1486.00000 1506.00000 1516.00000 1528.00000 1540.00000 1546.00000 1549.00000 1552.00000 1555.00000 1557.00000 1560.00000 1566.00000 1574.00000 1584.00000 1592.00000 1597.00000 1606.00000 1612.00000
975.00000 974.00000 973.00000 971.00000 970.00000 969.00000 967.00000 963.00000 959.00000 955.00000 951.00000 947.00000 940.00000 930.00000 921.00000 913.00000 906.00000 899.00000 896.00000 893.00000 891.00000 889.00000 887.00000 888.00000 890.00000 891.00000 894.00000 898.00000 903.00000 907.00000 911.00000 916.00000 918.00000 914.00000 910.00000 903.00000 892.00000 880.00000 867.00000 856.00000 847.00000 837.00000 816.00000 801.00000 795.00098 795.00000 805.00000 820.00000 824.00000 830.00000 836.00000 840.00000 843.00000 844.00000 842.00000 840.00000 837.00000 832.00000 829.00000 824.00000 816.00000 809.00000 802.00000 797.00000 794.00000 793.00000 796.00000 796.00000 795.00000 793.00000 791.00000 789.00000 788.00000 796.00000 803.00000 807.00000 803.00000 797.00000 792.00000 785.00000 779.00000 778.01385 778.01428 780.00201 780.00244 783.00000 789.00000 793.00000 797.00000 800.00000 803.00000 806.00000 813.00000 821.00000 826.00000 830.00000 838.00000 847.00000 855.00000 861.00000 845.00000 847.00000 865.00000 863.00000 862.00000 860.00000 854.00000 844.00000 842.00000 844.00000 845.00000 846.00000 848.00000 850.00000 850.00000 850.00000 852.00000 855.00000 853.00000 861.00201 861.00244 861.00342 861.00439 861.00543 868.00000 873.00000 876.00000 876.00000 878.00000 879.00000 880.00000 883.00000 887.00000 893.00000 899.00000 907.00000 914.00000 921.00000 929.00000 940.00000 951.00000 958.00000 968.00000 978.00000 983.00000 983.00000 981.00000 977.00000 971.00000 967.00000 959.00000 946.00000 940.00000 940.00244 940.00281 942.00000 947.00000 950.00000 956.00244 956.00281 956.00385 956.00482 956.00580 956.00684 957.00000 964.00000 973.00000 980.00000 981.00000 982.00000 983.00000 986.00000 985.00000 985.00000 987.00000 990.00000 994.00000 996.00000 998.00000 999.00000 1000.00000 1009.00000 1013.00000 1016.00000 1025.00000 1036.00000 1050.00000 1063.00000 1080.00000 1096.00000 1105.00000 1115.00000 1124.00000 1132.00000 1139.00000 1148.00000 1156.00000 1165.00000 1174.00000 1181.00000 1183.00000 1183.00000 1182.00000 1180.00000 1170.00000 1158.00000 1141.00000 1132.00000 1121.00000 1117.00000 1120.00000 1126.00000 1133.00000 1137.00000 1142.00000 1151.00000 1159.00000 1166.00000 1172.00000 1177.00000 1181.00000 1187.00000 1189.00000 1189.00000 1187.00000 1187.00000 1187.00000 1187.00000 1190.00000 1190.00000 1189.00000 1187.00000 1186.00000 1190.00000 1196.00000 1200.00000 1211.00000 1223.00000 1232.00000 1236.00000 1242.00000 1249.00000 1257.00000 1272.00000 1285.00000 1294.00000 1303.00000 1315.00000 1327.00000 1341.00000 1354.00000 1372.00000 1388.00000 1398.00000 1416.00000 1433.00000 1452.00000 1468.00000 1482.00000 1503.00000 1511.00000 1521.00000 1531.00000 1537.00000 1541.00000 1545.00000 1547.00000 1549.00000 1551.00000 1553.00000 1563.00000 1575.00000 1583.00000 1588.00000 1596.00000 1603.00000
964.00000 964.00000 963.00000 962.00000 960.00000 959.00000 957.00000 953.00000 949.00000 946.00000 942.00000 937.00000 928.00000 919.00000 910.00000 903.00000 897.00000 893.00000 889.00000 886.00000 885.00000 884.00000 881.00000 881.00000 882.00000 884.00000 886.00000 890.00000 894.00000 897.00000 901.00000 904.00000 907.00000 908.00000 904.00000 899.00000 891.00000 880.00000 868.00000 857.00000 848.00000 838.00000 818.00000 801.00000 795.00201 789.00000 796.00000 809.00000 814.00000 819.00000 823.00000 828.00000 831.00000 832.00000 830.00000 828.00000 827.00000 823.00000 820.00000 814.00000 804.00000 797.00000 798.00000 794.00000 791.00000 789.00000 789.00000 790.00000 788.00000 784.00000 783.00000 783.00000 791.00000 798.00000 800.00000 798.00000 792.00000 786.00000 780.00000 778.01282 776.00525 778.01282 780.00342 781.00000 786.00000 792.00000 798.00000 802.00000 806.00000 810.00000 814.00000 819.00000 829.00000 834.00000 839.00000 845.00000 856.00000 864.00000 845.00000 862.00000 856.00000 850.00000 846.00000 847.00000 854.00000 852.00000 847.00000 841.00000 838.00000 839.00000 840.00000 841.00000 844.00000 848.00140 848.00244 848.00342 848.00439 851.00000 854.00000 861.00098 861.00342 861.00439 861.00543 861.00580 862.00000 868.00000 871.00000 872.00000 874.00000 875.00000 875.00000 876.00000 879.00000 880.00000 885.00000 896.00000 901.00000 908.00000 915.00000 925.00000 934.00000 944.00000 953.00000 963.00000 973.00000 974.00000 972.00000 968.00000 961.00000 951.00000 938.00000 933.00000 933.00000 940.00140 946.00000 953.00000 958.00000 959.00000 959.00000 958.00000 957.00000 958.00000 958.00000 958.00000 959.00000 966.00000 977.00000 984.00000 988.00000 989.00000 990.00000 991.00000 992.00000 991.00000 991.00000 992.00000 994.00098 994.00201 995.00000 997.00000 999.00000 1003.00000 1009.00000 1016.00000 1026.00000 1041.00000 1055.00000 1067.00000 1080.00000 1093.00000 1103.00000 1112.00000 1121.00000 1129.00000 1137.00000 1145.00000 1153.00000 1160.00000 1173.00000 1180.00000 1183.00000 1182.00000 1181.00000 1167.00000 1155.00000 1142.00000 1132.00000 1123.00000 1117.00000 1115.00000 1120.00000 1132.00000 1137.00000 1143.00000 1150.00000 1160.00000 1171.00000 1178.00000 1184.00000 1189.00000 1195.00000 1201.00000 1204.00000 1204.00000 1203.00000 1200.00000 1197.00000 1195.00000 1196.00000 1195.00000 1193.00000 1192.00000 1190.00000 1190.00000 1195.00000 1199.00000 1207.00000 1216.00000 1224.00000 1230.00000 1237.00000 1245.00000 1255.00000 1268.00000 1280.00000 1288.00000 1297.00000 1309.00000 1325.00000 1341.00000 1352.00000 1372.00000 1385.00000 1394.00000 1409.00000 1429.00000 1448.00000 1463.00000 1476.00000 1501.00000 1509.00000 1514.00000 1521.00000 1526.00000 1530.00000 1533.00000 1535.00000 1540.00000 1540.00000 1537.00000 1547.00000 1560.00000 1570.00000 1578.00000 1586.00000 1594.00000
952.00000 952.00000 951.00000 950.00000 949.00000 947.00000 945.00000 942.00000 939.00000 933.00000 928.00000 920.00000 913.00000 905.00000 899.00000 895.00000 890.00000 885.00000 882.00000 879.00000 878.00000 877.00000 876.00000 874.00000 875.00000 876.00000 878.00000 882.00000 885.00000 888.00000 892.00000 895.00000 897.00000 899.00000 897.00000 893.00000 887.00000 878.00000 868.00000 858.00000 848.00000 838.00000 818.00000 802.00000 795.00299 786.00000 791.00000 798.00000 805.00000 810.00000 814.00000 816.00000 819.00000 820.00000 819.00000 817.00000 816.00000 813.00000 809.00000 805.00000 799.00000 794.00000 793.00000 792.00000 789.00000 787.00000 785.00000 784.00000 781.00000 778.00000 778.00000 786.00000 792.00000 789.00000 786.00000 784.00000 780.00000 778.00000 776.00482 776.00385 778.01141 780.00482 785.00000 791.00000 796.00000 802.00000 807.00000 811.00000 815.00000 820.00000 827.00000 835.00000 842.00000 845.00000 853.00000 862.00000 843.00000 863.00000 854.00000 843.00000 833.00000 831.00000 829.00000 838.00000 845.00000 844.00000 840.00000 837.00000 835.00482 835.00525 837.00000 838.00000 841.00000 848.00244 850.00000 853.00000 853.00000 851.00000 856.00000 861.00000 863.00000 867.00000 866.00000 865.00000 864.00000 863.00000 866.00000 868.00000 870.00000 871.00000 872.00000 875.00000 878.00000 881.00000 882.00000 883.00000 887.00000 895.00098 901.00000 909.00000 916.00000 926.00000 938.00000 947.00000 960.00000 965.00000 963.00000 957.00000 944.00000 932.00000 927.00000 930.00000 940.00000 946.00000 954.00000 962.00000 965.00000 967.00000 968.00000 971.00000 973.00000 973.00000 975.00000 976.00000 973.00000 970.00000 980.00000 988.00000 994.00000 996.00000 998.00000 998.00000 998.00000 998.00000 998.00000 998.00000 998.00000 998.00000 998.00000 1000.00000 1003.00000 1005.00000 1010.00000 1017.00000 1029.00000 1044.00000 1055.00000 1066.00000 1079.00000 1089.00000 1098.00000 1106.00000 1115.00000 1122.00000 1130.00000 1138.00000 1144.00000 1152.00000 1159.00000 1170.00000 1179.00000 1177.00000 1166.00000 1153.00000 1140.00000 1129.00000 1120.00000 1116.00000 1111.00000 1115.00000 1124.00000 1138.00000 1146.00000 1151.00000 1159.00000 1173.00000 1183.00000 1188.00000 1193.00000 1200.00000 1205.00000 1209.00000 1212.00000 1212.00000 1213.00000 1210.00000 1208.00000 1205.00000 1202.00000 1200.00000 1198.00000 1196.00000 1194.00000 1192.00000 1196.00000 1199.00000 1207.00000 1214.00000 1222.00000 1228.00000 1235.00000 1244.00000 1255.00000 1267.00000 1275.00000 1283.00000 1292.00000 1305.00000 1320.00000 1335.00000 1351.00000 1367.00000 1381.00000 1391.00000 1401.00000 1421.00000 1442.00000 1458.00000 1472.00000 1489.00000 1502.00000 1507.00000 1511.00000 1515.00000 1519.00000 1519.00000 1517.00000 1516.00000 1516.00000 1520.00000 1531.00000 1546.00000 1556.00000 1563.00000 1571.00000 1577.00000
939.00000 939.00000 939.00000 939.00000 938.00000 937.00000 934.00000 931.00000 927.00000 920.00000 915.00000 908.00000 900.00000 894.00000 890.00000 885.00000 881.00000 877.00000 872.00000 870.00000 869.00000 871.00000 871.00000 869.00000 868.00000 869.00000 871.00000 873.00000 876.00000 880.00000 883.00000 886.00000 889.00000 892.00000 891.00000 887.00000 881.00000 876.00000 868.00000 859.00000 848.00000 837.00000 817.00000 802.00000 795.00403 784.00000 787.00000 793.00000 798.00000 802.00000 805.00000 807.00000 809.00000 809.00000 809.00000 807.00000 806.00000 803.00000 800.00000 798.00000 795.00000 792.00000 789.00000 789.00000 786.00000 784.00000 782.00000 780.00000 777.00000 774.00000 779.00000 785.00000 782.00000 778.00000 777.00000 777.00000 776.00000 776.00201 776.00244 778.01001 780.00000 785.00000 792.00000 799.00000 806.00000 812.00000 816.00000 820.00000 828.00000 838.00000 842.00000 845.00000 850.00000 853.00000 852.00000 853.00000 847.00000 837.00000 825.00000 819.00000 819.00000 818.00000 819.00000 826.00000 834.00000 836.00000 835.00000 835.00482 835.00385 835.00482 836.00000 838.00000 844.00000 853.00000 857.00000 858.00000 857.00000 855.00000 853.00000 856.00000 862.00000 869.00000 870.00000 869.00000 868.00000 868.00000 869.00000 870.00000 871.00000 872.00000 874.00000 876.00000 882.00000 886.00000 892.00000 893.00000 896.00000 895.00000 895.00244 896.00000 901.00000 909.00000 922.00000 933.00000 946.00000 951.00000 949.00000 939.00000 927.00000 920.00000 926.00000 938.00000 946.00000 953.00000 959.00000 966.00000 970.00000 973.00000 976.00000 980.00000 986.00000 990.00000 997.00000 997.00000 990.00000 984.00000 981.00000 990.00000 998.00000 1005.00000 1006.00000 1006.00000 1006.00000 1007.00000 1008.00000 1008.00000 1009.00000 1008.00000 1007.00000 1008.00000 1011.00000 1010.00000 1011.00000 1016.00000 1025.00000 1039.00000 1049.00000 1059.00000 1073.00000 1084.00000 1092.00000 1100.00000 1107.00000 1114.00000 1121.00000 1128.00000 1135.00000 1141.00000 1146.00000 1150.00000 1156.00000 1153.00000 1145.00000 1137.00000 1125.00000 1117.00000 1112.00000 1108.00000 1111.00000 1119.00000 1130.00000 1143.00000 1152.00000 1158.00000 1173.00000 1184.00000 1191.00000 1196.00000 1202.00000 1210.00000 1213.00000 1217.00000 1220.00000 1222.00000 1224.00000 1220.00000 1217.00000 1214.00000 1212.00000 1208.00000 1204.00000 1200.00000 1197.00000 1196.00000 1198.00000 1200.00000 1206.00000 1213.00000 1221.00000 1228.00000 1234.00000 1242.00000 1254.00000 1262.00000 1270.00000 1278.00000 1290.00000 1302.00000 1313.00000 1326.00000 1339.00000 1358.00000 1371.00000 1383.00000 1394.00000 1410.00000 1429.00000 1450.00000 1465.00000 1475.00000 1489.00000 1497.00000 1502.00000 1505.00000 1507.00000 1507.00000 1507.00000 1505.00000 1508.00000 1512.00000 1517.00000 1530.00000 1542.00000 1549.00000 1556.00000 1563.00000
933.00000 933.00000 932.00000 931.00000 930.00000 927.00000 924.00000 921.00000 915.00000 909.00000 904.00000 897.00000 889.00000 885.00000 880.00000 876.00000 872.00000 867.00000 862.00000 861.00000 863.00000 865.00000 865.00000 864.00000 863.00000 862.00000 863.00000 865.00000 867.00000 871.00000 875.00000 878.00000 881.00000 885.00000 884.00000 881.00000 876.00000 872.00000 866.00000 858.00000 847.00000 830.00000 811.00000 798.00000 790.00000 782.00000 782.00000 787.00000 792.00000 795.00000 798.00000 799.00000 799.00000 799.00000 799.00000 799.00000 799.00000 797.00000 796.00000 794.00000 792.00000 789.00000 786.00000 785.00000 783.00000 781.00000 780.00000 775.00000 771.00000 775.00000 779.00000 779.00000 778.00000 776.00000 774.00000 772.00000 772.00000 776.00098 776.00342 779.00000 785.00000 791.00000 798.00000 807.00000 816.00000 821.00000 823.00000 828.00000 837.00000 842.00000 846.00000 847.00000 847.00000 843.00000 838.00000 826.00000 818.00000 815.00000 815.00098 815.00201 815.00299 815.00403 816.00000 819.00000 822.00000 827.00000 835.00201 835.00244 835.00342 835.00439 838.00000 840.00000 856.00000 862.00000 866.00000 868.00000 866.00000 863.00000 860.00000 858.00000 863.00000 871.00000 874.00000 873.00000 872.00000 873.00000 873.00000 874.00000 875.00000 876.00000 877.00000 877.00000 878.00000 882.00000 888.00000 898.00000 904.00000 906.00000 900.00000 896.00098 896.00201 898.00000 908.00000 922.00000 933.00000 935.00000 934.00000 926.00000 918.00000 918.00000 926.00000 938.00000 947.00000 952.00000 958.00000 964.00000 969.00000 974.00000 979.00000 985.00000 992.00000 998.00000 1002.00000 1003.00000 1002.00000 996.00000 990.00000 989.00000 998.00000 1006.00000 1013.00000 1013.00000 1015.00000 1018.00000 1019.00000 1020.00000 1022.00000 1021.00000 1020.00000 1018.00000 1018.00000 1018.00000 1018.00000 1019.00000 1021.00000 1032.00000 1042.00000 1051.00000 1059.00000 1072.00000 1084.00000 1091.00000 1097.00000 1105.00000 1111.00000 1115.00000 1118.00000 1123.00000 1129.00000 1133.00000 1136.00000 1133.00000 1126.00000 1120.00000 1112.00000 1106.00000 1104.00000 1109.00000 1116.00000 1124.00000 1136.00000 1148.00000 1158.00000 1169.00000 1183.00000 1193.00000 1198.00000 1206.00000 1213.00000 1219.00000 1224.00000 1231.00000 1235.00000 1237.00000 1237.00000 1234.00000 1232.00000 1227.00000 1222.00000 1218.00000 1214.00000 1209.00000 1207.00000 1206.00000 1204.00000 1205.00000 1207.00000 1213.00000 1220.00000 1227.00000 1234.00000 1241.00000 1250.00000 1257.00000 1263.00000 1272.00000 1285.00000 1297.00000 1307.00000 1317.00000 1329.00000 1343.00000 1360.00000 1372.00000 1384.00000 1398.00000 1412.00000 1431.00000 1453.00000 1466.00000 1475.00000 1479.00000 1482.00000 1486.00000 1491.00000 1496.00000 1496.00000 1495.00000 1500.00000 1504.00000 1509.00000 1516.00000 1528.00000 1536.00000 1541.00000 1543.00000
927.00000 926.00000 924.00000 923.00000 921.00000 917.00000 912.00000 907.00000 903.00000 897.00000 890.00000 885.00000 880.00000 875.00000 871.00000 867.00000 863.00000 859.00000 855.00000 854.00000 856.00000 858.00000 859.00000 857.00000 855.00000 853.00000 854.00000 856.00000 858.00000 862.00000 866.00000 870.00000 874.00000 877.00000 877.00000 874.00000 871.00000 867.00000 863.00000 854.00000 841.00000 822.00000 807.00000 795.00000 787.00000 780.00000 778.00000 781.00000 785.00000 791.00000 793.00000 794.00000 793.00000 794.00000 794.00000 797.00000 797.00000 794.00000 791.00000 790.00000 788.00000 786.00000 783.00000 782.00000 780.00000 777.00000 775.00000 770.00000 769.00000 770.00000 774.00000 775.00000 775.00000 773.00000 771.00000 771.00000 773.00000 776.00000 779.00000 784.00000 790.00000 796.00000 803.00000 814.00000 822.00000 825.00000 827.00000 836.00000 840.00000 842.00000 842.00000 841.00000 835.00000 824.00000 815.00000 813.00098 813.00201 813.00299 815.00201 817.00000 819.00000 819.00000 819.00000 819.00000 821.00000 825.00000 835.00098 835.00201 835.00439 835.00482 840.00000 854.00000 866.00000 874.00000 878.00000 878.00000 878.00000 876.00000 873.00000 871.00000 870.00000 873.00000 878.00000 877.00000 877.00000 878.00000 878.00000 879.00000 880.00000 882.00000 885.00000 887.00000 888.00000 890.00000 894.00000 894.00000 901.00000 910.00000 910.00000 905.00000 899.00000 898.00000 902.00000 912.00000 920.00000 923.00000 922.00000 918.00000 915.00385 920.00000 929.00000 935.00000 940.00000 945.00000 955.00000 961.00000 966.00000 973.00000 978.00000 982.00000 987.00000 993.00000 1000.00000 1003.00000 1008.00000 1005.00000 1000.00000 997.00000 998.00000 1007.00000 1015.00000 1020.00000 1026.00000 1031.00000 1035.00000 1036.00000 1036.00000 1036.00000 1034.00000 1032.00000 1030.00000 1029.00000 1027.00000 1027.00000 1027.00000 1027.00000 1034.00000 1042.00000 1050.00000 1061.00000 1074.00000 1080.00000 1085.00000 1093.00000 1100.00000 1103.00000 1106.00000 1110.00000 1111.00000 1112.00000 1116.00000 1114.00000 1108.00000 1100.00000 1097.00000 1101.00000 1104.00000 1111.00000 1119.00000 1128.00000 1140.00000 1151.00000 1164.00000 1178.00000 1191.00000 1201.00000 1207.00000 1214.00000 1224.00000 1233.00000 1241.00000 1245.00000 1248.00000 1249.00000 1250.00000 1248.00000 1246.00000 1243.00000 1238.00000 1233.00000 1229.00000 1226.00000 1222.00000 1219.00000 1217.00000 1215.00000 1214.00000 1216.00000 1220.00000 1227.00000 1233.00000 1240.00000 1246.00000 1251.00000 1257.00000 1266.00000 1280.00000 1290.00000 1300.00000 1310.00000 1320.00000 1334.00000 1349.00000 1363.00000 1375.00000 1386.00000 1397.00000 1412.00000 1431.00000 1451.00000 1462.00000 1467.00000 1469.00000 1471.00000 1473.00000 1478.00000 1485.00000 1486.00000 1490.00000 1494.00000 1500.00000 1507.00000 1515.00000 1521.00000 1527.00000 1530.00000
920.00000 918.00000 912.00000 909.00000 905.00000 901.00000 897.00000 892.00000 888.00000 882.00000 877.00000 873.00000 870.00000 866.00000 862.00000 858.00000 854.00000 852.00000 849.00000 846.00000 848.00000 847.00000 848.00000 847.00000 846.00000 844.00000 844.00000 847.00000 851.00000 855.00000 858.00000 861.00000 865.00000 868.00000 868.00000 867.00000 864.00000 861.00000 855.00000 846.00000 835.00000 819.00000 804.00000 794.00000 787.00000 779.00000 776.00000 778.00000 781.00000 786.00000 788.00000 789.00000 788.00000 788.00000 790.00000 793.00000 794.00000 791.00000 788.00000 786.00000 784.00000 782.00000 780.00000 776.00000 772.00000 771.00000 769.00000 767.00342 767.00244 767.00000 769.00000 770.00000 771.00000 770.00000 770.00000 771.00000 774.00000 777.00000 781.00000 786.00000 791.00000 796.00000 803.00000 816.00000 823.00000 828.00000 830.00000 831.00000 833.00000 830.00000 826.00000 821.00000 813.00000 806.00000 806.00000 813.00000 817.00000 819.00000 821.00000 825.00000 830.00000 832.00000 832.00000 831.00000 829.00000 835.00244 835.00000 836.00000 838.00000 839.00000 852.00000 866.00000 875.00000 883.00000 886.00000 886.00000 887.00000 886.00000 885.00000 883.00000 882.00000 882.00000 882.00000 884.00000 885.00000 886.00000 887.00000 889.00000 891.00000 894.00000 899.00000 901.00000 903.00000 905.00000 907.00000 904.00000 902.00000 909.00000 919.00000 918.00000 910.00000 904.00000 903.00000 903.00000 908.00000 913.00000 916.00000 915.00244 915.00281 919.00000 924.00000 931.00000 937.00000 944.00000 952.00000 959.00000 963.00000 967.00000 971.00000 976.00000 980.00000 986.00000 993.00000 998.00000 1004.00000 1010.00000 1010.00000 1006.00000 1004.00000 1007.00000 1015.00000 1022.00000 1032.00000 1040.00000 1049.00000 1055.00000 1056.00000 1054.00000 1052.00000 1049.00000 1043.00000 1040.00000 1038.00000 1037.00000 1036.00000 1032.00000 1030.00000 1035.00000 1040.00000 1052.00000 1062.00000 1068.00000 1074.00000 1080.00000 1087.00000 1091.00000 1094.00000 1096.00000 1096.00000 1098.00000 1099.00000 1099.00000 1097.00000 1095.00000 1095.00000 1100.00000 1107.00000 1114.00000 1121.00000 1132.00000 1143.00000 1154.00000 1167.00000 1181.00000 1196.00000 1206.00000 1214.00000 1222.00000 1235.00000 1244.00000 1252.00000 1257.00000 1260.00000 1262.00000 1262.00000 1262.00000 1259.00000 1255.00000 1252.00000 1248.00000 1245.00000 1242.00000 1240.00000 1237.00000 1234.00000 1229.00000 1223.00000 1225.00000 1226.00000 1224.00000 1230.00000 1236.00000 1243.00000 1249.00000 1254.00000 1260.00000 1273.00000 1285.00000 1294.00000 1303.00000 1313.00000 1323.00000 1338.00000 1352.00000 1367.00000 1376.00000 1386.00000 1396.00000 1409.00000 1423.00000 1440.00000 1452.00000 1456.00000 1458.00000 1460.00000 1463.00000 1468.00000 1472.00000 1479.00000 1483.00000 1488.00000 1496.00000 1503.00000 1509.00000 1514.00000 1520.00000
904.00000 899.00000 896.00000 894.00000 892.00000 888.00000 884.00000 878.00000 873.00000 868.00000 865.00000 862.00000 859.00000 855.00000 852.00000 848.00000 845.00000 844.00000 841.00000 838.00000 837.00000 836.00000 837.00000 838.00000 838.00000 836.00000 836.00000 840.00000 844.00000 848.00000 852.00000 855.00000 857.00000 859.00000 860.00000 858.00000 857.00000 852.00000 846.00000 839.00000 828.00000 813.00000 799.00000 792.00000 787.00000 779.00000 775.00000 774.00000 778.00000 781.00000 783.00000 784.00000 782.00000 783.00000 786.00000 790.00000 791.00000 788.00000 785.00000 783.00000 781.00000 777.00000 774.00000 768.00000 764.00000 765.00000 764.00000 763.00000 764.00000 767.00098 767.00201 767.00299 767.00403 769.00000 771.00000 771.00000 774.00000 777.00000 782.00000 786.00000 791.00000 795.00000 801.00000 814.00000 821.00000 823.00000 824.00000 823.00000 823.00000 812.00000 805.00000 800.00000 800.00000 805.00000 815.00000 822.00000 826.00000 828.00000 829.00000 835.00000 841.00000 843.00000 843.00000 843.00000 845.00000 844.00000 844.00000 844.00000 850.00000 856.00000 865.00000 876.00000 883.00000 889.00000 892.00000 893.00000 894.00000 895.00000 894.00000 892.00000 892.00000 892.00000 892.00000 893.00000 894.00000 896.00000 899.00000 901.00000 904.00000 906.00000 910.00000 912.00000 913.00000 915.00000 917.00000 919.00000 914.00000 911.00000 920.00000 924.00000 921.00000 918.00000 916.00000 915.00000 913.00000 909.00000 910.00000 915.00140 916.00000 922.00000 932.00000 941.00000 946.00000 951.00000 957.00000 963.00000 969.00000 974.00000 979.00000 982.00000 989.00000 990.00000 992.00000 993.00000 998.00000 1007.00000 1016.00000 1012.00000 1013.00000 1011.00000 1014.00000 1020.00000 1032.00000 1043.00000 1058.00000 1066.00000 1069.00000 1069.00000 1068.00000 1066.00000 1059.00000 1055.00000 1052.00000 1050.00000 1048.00000 1043.00000 1040.00000 1038.00000 1038.00000 1041.00000 1051.00000 1060.00000 1066.00000 1071.00000 1076.00000 1079.00000 1081.00000 1081.00000 1082.00000 1087.00000 1091.00000 1093.00000 1093.00000 1093.00000 1097.00000 1103.00000 1110.00000 1117.00000 1125.00000 1136.00000 1146.00000 1157.00000 1171.00000 1187.00000 1201.00000 1209.00000 1218.00000 1232.00000 1244.00000 1253.00000 1264.00000 1270.00000 1275.00000 1277.00000 1279.00000 1278.00000 1275.00000 1271.00000 1268.00000 1265.00000 1260.00000 1257.00000 1254.00000 1251.00000 1247.00000 1244.00000 1240.00000 1237.00000 1234.00000 1232.00000 1229.00000 1234.00000 1240.00000 1246.00000 1251.00000 1257.00000 1269.00000 1279.00000 1288.00000 1296.00000 1304.00000 1314.00000 1327.00000 1342.00000 1359.00000 1369.00000 1378.00000 1387.00000 1396.00000 1402.00000 1415.00000 1428.00000 1441.00000 1444.00000 1447.00000 1449.00000 1453.00000 1456.00000 1462.00000 1469.00000 1475.00000 1485.00000 1492.00000 1497.00000 1502.00000 1507.00000
895.00000 890.00000 886.00000 882.00000 879.00000 875.00000 870.00000 864.00000 860.00000 857.00000 854.00000 851.00000 847.00000 843.00000 840.00000 837.00000 833.00000 831.00000 831.00000 830.00000 828.00000 828.00000 830.00000 832.00000 830.00000 828.00000 828.00000 833.00000 837.00000 841.00000 845.00000 848.00000 850.00000 850.00000 851.00000 851.00000 849.00000 845.00000 839.00000 830.00000 820.00000 808.00000 797.00000 791.00000 785.00000 779.00000 775.00000 772.00000 775.00000 777.00000 778.00000 779.00000 778.00000 779.00000 782.00000 786.00000 789.00000 786.00000 783.00000 780.00000 775.00000 771.00000 767.00000 763.00000 759.00000 759.00000 760.00000 761.00000 762.00000 767.00201 767.00299 769.00000 771.00000 772.00000 774.00000 773.00000 773.00000 778.00000 782.00000 787.00000 791.00000 795.00000 798.00000 809.00000 818.00000 820.00000 819.00000 813.00000 805.00000 799.00000 794.00665 794.00568 797.00000 813.00000 819.00000 822.00000 826.00000 831.00000 836.00000 839.00000 845.00000 849.00000 851.00000 852.00000 855.00000 857.00000 858.00000 861.00000 866.00000 872.00000 880.00000 884.00000 890.00000 896.00000 899.00000 901.00000 902.00000 903.00000 904.00000 902.00000 902.00000 902.00000 902.00000 904.00000 906.00000 908.00000 910.00000 912.00000 915.00000 918.00000 920.00000 923.00000 925.00000 926.00000 928.00000 928.00000 925.00000 918.00000 921.00000 928.00000 928.00000 926.00000 926.00000 926.00000 920.00000 914.00000 915.00000 919.00000 919.00000 923.00000 931.00000 942.00000 950.00000 957.00000 964.00000 969.00000 975.00000 982.00000 991.00000 1000.00000 1002.00000 1002.00000 1002.00000 1001.00000 1004.00000 1008.00000 1014.00000 1019.00000 1021.00000 1021.00000 1021.00000 1020.00000 1030.00000 1042.00000 1055.00000 1064.00000 1074.00000 1081.00000 1081.00000 1079.00000 1074.00000 1070.00000 1067.00000 1064.00000 1062.00000 1061.00000 1061.00000 1060.00000 1055.00000 1052.00000 1052.00000 1053.00000 1060.00000 1063.00000 1068.00000 1072.00000 1073.00000 1075.00000 1079.00000 1081.00000 1084.00000 1086.00000 1090.00000 1093.00000 1098.00000 1105.00000 1112.00000 1120.00000 1132.00000 1141.00000 1150.00000 1161.00000 1176.00000 1192.00000 1205.00000 1213.00000 1223.00000 1239.00000 1249.00000 1258.00000 1271.00000 1281.00000 1285.00000 1287.00000 1289.00000 1289.00000 1287.00000 1285.00000 1283.00000 1280.00000 1276.00000 1272.00000 1269.00000 1265.00000 1258.00000 1254.00000 1251.00000 1248.00000 1242.00000 1238.00000 1234.00000 1233.00000 1237.00000 1242.00000 1249.00000 1255.00000 1264.00000 1273.00000 1283.00000 1292.00000 1297.00000 1306.00000 1317.00000 1332.00000 1348.00000 1363.00000 1370.00000 1378.00000 1388.00000 1393.00000 1397.00000 1411.00000 1423.00000 1430.00000 1433.00000 1435.00000 1440.00000 1444.00000 1451.00000 1456.00000 1461.00000 1468.00000 1482.00000 1487.00000 1492.00000 1498.00000
889.00000 882.00000 875.00000 869.00000 865.00000 860.00000 856.00000 853.00000 850.00000 847.00000 844.00000 841.00000 834.00000 830.00000 827.00000 822.00000 818.00000 818.00000 820.00000 821.00000 819.00000 821.00000 824.00000 825.00000 823.00000 820.00000 821.00000 825.00000 830.00000 834.00000 839.00000 840.00000 842.00000 842.00000 842.00000 842.00000 842.00000 837.00000 831.00000 822.00000 812.00000 802.00000 795.00000 789.00000 783.00000 778.00000 773.00000 770.00000 770.00000 771.00000 773.00000 775.00000 775.00000 777.00000 781.00000 784.00000 786.00000 785.00000 781.00000 774.00000 769.00000 764.00000 761.00000 759.00000 757.00000 759.00000 762.00000 764.00000 767.00342 769.00000 771.00000 773.00000 776.00000 776.00000 777.00000 775.00000 774.00000 777.00000 781.00000 784.00000 788.00000 792.00000 796.00000 801.00000 810.00000 812.00000 805.00000 799.00000 796.00000 794.00385 794.00427 796.00000 803.00000 820.00000 824.00000 825.00000 826.00000 830.00000 835.00000 840.00000 846.00000 852.00000 857.00000 860.00000 862.00000 866.00000 867.00000 873.00000 879.00000 883.00000 887.00000 890.00000 896.00000 902.00000 906.00000 909.00000 912.00000 913.00000 915.00000 915.00000 915.00000 916.00000 916.00000 917.00000 918.00000 919.00000 921.00000 925.00000 927.00000 930.00000 933.00000 935.00000 937.00000 938.00000 939.00000 938.00000 935.00000 931.00000 925.00000 930.00000 934.00000 933.00000 934.00000 930.00000 922.00000 918.00000 922.00000 928.00000 929.00000 930.00000 930.00000 939.00000 949.00000 961.00000 967.00000 974.00000 981.00000 991.00000 1000.00000 1005.00000 1010.00000 1011.00000 1013.00000 1015.00000 1018.00000 1020.00000 1022.00000 1025.00000 1026.00000 1025.00000 1025.00000 1024.00000 1029.00000 1039.00000 1049.00000 1060.00000 1070.00000 1081.00000 1090.00000 1092.00000 1090.00000 1088.00000 1084.00000 1078.00000 1075.00000 1073.00000 1071.00000 1071.00000 1070.00000 1069.00000 1066.00000 1065.00000 1067.00000 1070.00000 1072.00000 1075.00000 1078.00000 1080.00000 1083.00000 1088.00000 1090.00000 1091.00000 1093.00000 1093.00000 1099.00000 1107.00000 1114.00000 1123.00000 1138.00000 1147.00000 1155.00000 1166.00000 1181.00000 1196.00000 1206.00000 1213.00000 1223.00000 1241.00000 1252.00000 1263.00000 1278.00000 1287.00000 1291.00000 1295.00000 1298.00000 1299.00000 1296.00000 1296.00000 1294.00000 1290.00000 1287.00000 1285.00000 1283.00000 1280.00000 1273.00000 1266.00000 1263.00000 1259.00000 1254.00000 1247.00000 1242.00000 1239.00000 1238.00000 1240.00000 1246.00000 1253.00000 1259.00000 1270.00000 1281.00000 1287.00000 1294.00000 1300.00000 1309.00000 1323.00000 1336.00000 1352.00000 1362.00000 1370.00000 1380.00000 1385.00000 1391.00000 1399.00000 1409.00000 1415.00000 1418.00000 1419.00000 1421.00000 1428.00000 1441.00000 1445.00000 1449.00000 1455.00000 1462.00000 1480.00000 1485.00000 1494.00000
886.00000 874.00000 865.00000 858.00000 855.00000 850.00000 846.00000 843.00000 840.00000 835.00000 830.00000 825.00000 819.00000 818.00000 816.00000 814.00000 812.00000 813.00000 815.00000 815.00000 812.00000 814.00000 817.00000 819.00000 816.00000 813.00000 815.00000 818.00000 822.00000 826.00000 830.00000 832.00000 834.00000 834.00000 833.00000 832.00000 832.00000 829.00000 825.00000 816.00000 808.00000 799.00000 793.00000 786.00000 780.00000 776.00000 772.00000 768.00000 768.00000 769.00000 770.00000 771.00000 772.00000 776.00000 781.00000 783.00000 782.00000 781.00000 776.00000 770.00000 763.00000 759.00000 758.00000 756.00000 757.00000 759.00000 763.00000 767.00482 770.00000 773.00000 775.00000 778.00000 780.00000 780.00000 780.00000 779.00000 779.00000 778.00000 778.00000 780.00000 784.00000 789.00000 793.00000 797.00000 802.00000 803.00000 798.00000 794.00000 792.01068 794.00281 796.00000 802.00000 816.00000 824.00000 827.00000 830.00000 830.00000 829.00000 834.00000 838.00000 845.00000 853.00000 860.00000 862.00000 865.00000 867.00000 872.00000 877.00000 883.00000 888.00000 891.00000 897.00000 902.00000 908.00000 914.00000 917.00000 921.00000 923.00000 925.00000 926.00000 927.00000 928.00000 929.00000 930.00000 933.00000 937.00000 938.00000 940.00000 941.00000 942.00000 945.00000 947.00000 949.00000 950.00000 950.00000 948.00000 945.00000 940.00000 932.00000 933.00000 937.00000 940.00000 939.00000 933.00000 927.00000 928.00000 933.00000 939.00000 941.00000 943.00000 940.00000 940.00000 948.00000 959.00000 968.00000 976.00000 987.00000 999.00000 1005.00000 1011.00000 1016.00000 1020.00000 1026.00000 1029.00000 1030.00000 1031.00000 1032.00000 1032.00000 1031.00000 1029.00000 1029.00000 1028.00000 1028.00000 1036.00000 1044.00000 1054.00000 1065.00000 1077.00000 1087.00000 1099.00000 1102.00000 1102.00000 1100.00000 1094.00000 1088.00000 1086.00000 1084.00000 1083.00000 1085.00000 1085.00000 1084.00000 1082.00000 1081.00000 1081.00000 1082.00000 1083.00000 1084.00000 1085.00000 1090.00000 1094.00000 1098.00000 1099.00000 1099.00000 1097.00000 1099.00000 1108.00000 1117.00000 1130.00000 1143.00000 1151.00000 1159.00000 1173.00000 1186.00000 1199.00000 1207.00000 1215.00000 1227.00000 1243.00000 1255.00000 1270.00000 1284.00000 1292.00000 1297.00000 1303.00000 1307.00000 1306.00000 1306.00000 1306.00000 1304.00000 1300.00000 1296.00000 1294.00000 1291.00000 1290.00000 1286.00000 1282.00000 1277.00000 1272.00000 1266.00000 1258.00000 1252.00000 1248.00000 1244.00000 1245.00000 1243.00000 1249.00000 1254.00000 1260.00000 1273.00000 1283.00000 1288.00000 1294.00000 1302.00000 1315.00000 1328.00000 1340.00000 1352.00000 1363.00000 1372.00000 1381.00000 1387.00000 1392.00000 1396.00000 1400.00000 1405.00000 1406.00000 1407.00000 1413.00000 1423.00000 1432.00000 1437.00000 1444.00000 1453.00000 1463.00000 1479.00000 1494.00000
887.00000 877.00000 858.00000 850.00000 846.00000 841.00000 833.00000 827.00000 821.00000 816.00000 815.00000 815.00000 812.00000 810.00000 809.00000 807.00000 805.00000 807.00000 808.00000 808.00000 806.00000 806.00000 808.00000 810.00000 808.00000 805.00000 809.00000 812.00000 816.00000 820.00000 822.00000 824.00000 826.00000 826.00000 824.00000 822.00000 821.00000 820.00000 817.00000 812.00000 805.00000 797.00000 788.00000 782.00000 778.00000 775.00000 770.00000 766.00000 766.00000 767.00000 768.00000 769.00000 771.00000 776.00000 780.00000 781.00000 781.00000 775.00000 769.00000 763.00000 759.00000 757.00000 756.00000 754.00000 757.00000 760.00000 764.00000 767.00000 771.00000 775.00000 778.00000 781.00000 782.00000 784.00000 785.00000 784.00000 785.00000 783.00000 783.00000 782.00000 781.00000 785.00000 792.00342 794.00000 797.00000 796.00000 794.00427 792.00922 794.00140 797.00000 801.00000 812.00000 823.00000 827.00000 831.00000 834.00000 834.00000 834.00000 834.00000 838.00000 846.00000 855.00000 862.00000 865.00000 868.00000 870.00000 873.00000 878.00000 884.00000 890.00000 896.00000 900.00000 908.00000 914.00000 919.00000 925.00000 929.00000 932.00000 934.00000 937.00000 938.00000 940.00000 941.00000 942.00000 944.00000 946.00000 948.00000 949.00000 951.00000 952.00000 955.00000 958.00000 960.00000 960.00000 960.00000 958.00000 954.00000 948.00000 940.00000 936.00000 941.00000 944.00000 943.00000 938.00000 932.00000 935.00000 941.00000 947.00000 952.00000 955.00000 959.00000 961.00000 963.00000 964.00000 969.00000 978.00000 990.00000 1002.00000 1009.00000 1015.00000 1021.00000 1029.00000 1037.00000 1041.00000 1041.00000 1041.00000 1040.00000 1038.00000 1037.00000 1035.00000 1033.00000 1033.00000 1033.00000 1034.00000 1041.00000 1050.00000 1060.00000 1071.00000 1083.00000 1100.00000 1105.00000 1110.00000 1110.00000 1109.00000 1101.00000 1098.00000 1095.00000 1096.00000 1099.00000 1101.00000 1100.00000 1098.00000 1095.00000 1093.00000 1088.00000 1089.00000 1090.00000 1091.00000 1095.00000 1101.00000 1105.00000 1107.00000 1107.00000 1105.00000 1104.00000 1113.00000 1124.00000 1140.00000 1148.00000 1155.00000 1167.00000 1182.00000 1193.00000 1203.00000 1212.00000 1220.00000 1236.00000 1248.00000 1261.00000 1275.00000 1287.00000 1296.00000 1304.00000 1312.00000 1317.00000 1316.00000 1316.00000 1316.00000 1314.00000 1311.00000 1307.00000 1303.00000 1300.00000 1299.00000 1297.00000 1291.00000 1286.00000 1283.00000 1279.00000 1269.00000 1262.00000 1257.00000 1252.00000 1252.00000 1250.00000 1249.00000 1250.00000 1256.00000 1263.00000 1277.00000 1283.00000 1289.00000 1297.00000 1307.00000 1320.00000 1330.00000 1342.00000 1353.00000 1362.00000 1371.00000 1379.00000 1384.00000 1387.00000 1390.00000 1393.00000 1394.00000 1394.00000 1400.00000 1410.00000 1418.00000 1423.00000 1433.00000 1445.00000 1456.00000 1469.00000 1488.00000
885.00000 877.00000 862.00000 851.00000 838.00000 829.00000 819.00000 811.00000 805.00000 801.00000 804.00000 806.00000 805.00000 803.00000 801.00000 800.00000 800.00000 801.00000 801.00000 801.00000 799.00000 798.00000 800.00000 802.00000 798.00000 797.00000 803.00000 806.00000 809.00000 808.00000 810.00000 813.00000 818.00000 817.00000 815.00000 813.00000 812.00000 812.00000 811.00000 807.00000 799.00000 792.00000 784.00000 778.00000 775.00000 773.00000 769.00000 765.00000 764.00000 765.00000 766.00000 768.00000 771.00000 775.00000 779.00000 779.00000 774.00000 768.00000 761.00000 759.00000 757.00000 755.00000 753.00000 754.00000 757.00000 760.00000 763.00000 766.00000 770.00000 773.00000 777.00000 781.00000 782.00000 784.00000 786.00000 789.00000 791.00000 790.00000 789.00000 787.00000 786.00000 784.00000 792.00244 792.00885 792.00781 792.00684 792.00781 794.00281 797.00000 802.00000 810.00000 818.00000 824.00000 829.00000 835.00000 838.00000 839.00000 839.00000 838.00000 840.00000 846.00000 855.00000 862.00000 866.00000 870.00000 873.00000 876.00000 879.00000 884.00000 891.00000 898.00000 906.00000 913.00000 920.00000 926.00000 933.00000 937.00000 941.00000 943.00000 945.00000 947.00000 948.00000 949.00000 951.00000 953.00000 954.00000 956.00000 958.00000 960.00000 962.00000 966.00000 969.00000 970.00000 969.00000 969.00000 965.00000 962.00000 956.00000 948.00000 943.00000 944.00000 947.00000 945.00000 942.00000 936.00000 940.00000 947.00000 954.00000 960.00000 964.00000 968.00000 971.00000 974.00000 974.00000 974.00000 979.00000 992.00000 1004.00000 1012.00000 1019.00000 1028.00000 1038.00000 1043.00000 1047.00000 1047.00000 1047.00000 1047.00000 1045.00000 1043.00000 1040.00000 1041.00000 1042.00000 1039.00000 1037.00000 1040.00000 1050.00000 1056.00000 1065.00000 1077.00000 1091.00000 1105.00000 1114.00000 1119.00000 1122.00000 1117.00000 1112.00000 1109.00000 1108.00000 1108.00000 1110.00000 1109.00000 1109.00000 1108.00000 1104.00000 1098.00000 1095.00000 1095.00000 1097.00000 1100.00000 1105.00000 1111.00000 1115.00000 1115.00000 1114.00000 1115.00000 1121.00000 1133.00000 1145.00000 1153.00000 1161.00000 1180.00000 1191.00000 1201.00000 1211.00000 1220.00000 1232.00000 1245.00000 1258.00000 1270.00000 1282.00000 1294.00000 1304.00000 1315.00000 1322.00000 1328.00000 1332.00000 1333.00000 1332.00000 1328.00000 1322.00000 1319.00000 1317.00000 1314.00000 1312.00000 1309.00000 1302.00000 1296.00000 1292.00000 1287.00000 1281.00000 1273.00000 1267.00000 1261.00000 1259.00000 1257.00000 1255.00000 1254.00000 1254.00000 1261.00000 1271.00000 1276.00000 1283.00000 1292.00000 1300.00000 1310.00000 1320.00000 1332.00000 1344.00000 1350.00000 1358.00000 1366.00000 1373.00000 1376.00000 1380.00000 1382.00000 1383.00000 1386.00000 1393.00000 1400.00000 1406.00000 1411.00000 1422.00000 1437.00000 1451.00000 1464.00000 1477.00000
881.00000 875.00000 865.00000 852.00000 840.00000 831.00000 822.00000 809.00000 799.00000 792.00000 793.00000 795.00000 793.00000 791.00000 792.00000 793.00000 792.00000 795.00000 795.00000 795.00000 793.00000 791.00000 791.00000 794.00000 791.00000 791.00000 794.00000 799.00000 799.00000 798.00000 798.00000 803.00000 807.00000 808.00000 807.00000 805.00000 804.00000 805.00000 805.00000 802.00000 795.00000 786.00000 779.00000 776.00000 773.00000 770.00000 767.00000 764.00000 762.00000 763.00000 765.00000 768.00000 770.00000 775.00000 774.00000 769.00000 766.00000 760.00000 758.00000 757.00000 755.00000 753.00000 751.00000 753.00000 756.00000 759.00000 761.00000 763.00000 767.00000 771.00000 775.00000 777.00000 779.00000 781.00000 782.00000 785.00000 789.00000 795.00000 794.00000 793.00000 792.00000 792.00098 792.00201 792.00385 792.00482 792.00580 796.00000 799.00000 802.00000 805.00000 812.00000 819.00000 825.00000 831.00000 837.00000 842.00000 846.00000 846.00000 846.00000 847.00000 849.00000 853.00000 862.00000 866.00000 870.00000 874.00000 878.00000 881.00000 887.00000 894.00000 901.00000 909.00000 917.00000 925.00000 932.00000 939.00000 943.00000 946.00000 949.00000 952.00000 954.00000 956.00000 957.00000 959.00000 961.00000 963.00000 965.00000 968.00000 970.00000 974.00000 977.00000 980.00000 982.00000 979.00000 975.00000 971.00000 967.00000 962.00000 954.00000 945.00000 947.00000 950.00000 949.00000 945.00000 942.00000 946.00000 953.00000 960.00000 965.00000 971.00000 975.00000 980.00000 983.00000 985.00000 985.00000 984.00000 994.00000 1004.00000 1014.00000 1024.00000 1034.00000 1043.00000 1048.00000 1052.00000 1053.00000 1053.00000 1054.00000 1052.00000 1050.00000 1048.00000 1048.00000 1049.00000 1049.00000 1046.00000 1044.00000 1048.00000 1055.00000 1063.00000 1074.00000 1087.00000 1102.00000 1112.00000 1123.00000 1132.00000 1129.00000 1125.00000 1122.00000 1120.00000 1119.00000 1119.00000 1119.00000 1120.00000 1121.00000 1118.00000 1111.00000 1103.00000 1101.00000 1103.00000 1109.00000 1114.00000 1119.00000 1123.00000 1124.00000 1124.00000 1124.00000 1128.00000 1137.00000 1147.00000 1157.00000 1171.00000 1188.00000 1199.00000 1209.00000 1218.00000 1230.00000 1243.00000 1255.00000 1267.00000 1278.00000 1290.00000 1301.00000 1314.00000 1324.00000 1331.00000 1338.00000 1343.00000 1345.00000 1346.00000 1344.00000 1340.00000 1333.00000 1330.00000 1326.00000 1324.00000 1322.00000 1317.00000 1309.00000 1301.00000 1297.00000 1291.00000 1284.00000 1278.00000 1272.00000 1269.00000 1266.00000 1263.00000 1259.00000 1256.00000 1259.00000 1267.00000 1273.00000 1277.00000 1284.00000 1291.00000 1300.00000 1310.00000 1318.00000 1330.00000 1338.00000 1345.00000 1353.00000 1361.00000 1364.00000 1367.00000 1369.00000 1374.00000 1378.00000 1384.00000 1390.00000 1395.00000 1400.00000 1410.00000 1426.00000 1442.00000 1460.00000 1472.00000
874.00000 869.00000 862.00000 852.00000 842.00000 834.00000 825.00000 814.00000 803.00000 794.00000 783.00000 779.00000 778.00000 780.00000 782.00000 785.00000 785.00000 788.00000 790.00000 789.00000 788.00000 784.00000 782.00000 786.00000 784.00000 782.00000 785.00000 792.00000 793.00000 792.00000 790.00000 793.00000 795.00000 797.00000 799.00000 797.00000 797.00000 798.00000 799.00000 797.00000 790.00000 783.00000 777.00000 774.00000 771.00000 768.00000 765.00000 762.00000 760.00000 762.00000 765.00000 767.00000 770.00000 772.00000 768.00000 763.00000 759.00000 758.00000 756.00000 755.00000 754.00000 752.00000 750.00000 751.00000 754.00000 756.00000 757.00000 761.00000 764.00000 768.00000 770.00000 771.00000 773.00000 776.00000 777.00000 780.00000 787.00000 797.00000 798.00000 798.00000 797.00000 793.00000 792.00244 792.00342 794.00000 798.00000 802.00000 805.00000 808.00000 810.00000 813.00000 819.00000 825.00000 832.00000 838.00000 846.00000 852.00000 853.00000 854.00000 855.00000 856.00000 857.00000 862.00000 867.00000 873.00000 877.00000 880.00000 884.00000 890.00000 896.00000 903.00000 910.00000 918.00000 926.00000 935.00000 942.00000 946.00000 950.00000 953.00000 957.00000 962.00000 966.00000 968.00000 970.00000 971.00000 973.00000 974.00000 977.00000 981.00000 985.00000 988.00000 990.00000 992.00000 988.00000 982.00000 977.00000 972.00000 964.00000 956.00000 947.00000 950.00000 954.00000 952.00000 950.00000 947.00000 951.00000 958.00000 964.00000 969.00000 975.00000 981.00000 988.00000 992.00000 995.00000 996.00000 994.00000 993.00000 1003.00000 1013.00000 1025.00000 1037.00000 1046.00000 1052.00000 1056.00000 1059.00000 1060.00000 1060.00000 1059.00000 1057.00000 1056.00000 1055.00000 1056.00000 1058.00000 1059.00000 1060.00000 1055.00000 1053.00000 1061.00000 1074.00000 1085.00000 1099.00000 1111.00000 1122.00000 1137.00000 1141.00000 1139.00000 1136.00000 1134.00000 1135.00000 1136.00000 1134.00000 1130.00000 1129.00000 1127.00000 1120.00000 1111.00000 1105.00000 1111.00000 1116.00000 1124.00000 1129.00000 1132.00000 1133.00000 1132.00000 1131.00000 1128.00000 1137.00000 1148.00000 1161.00000 1180.00000 1197.00000 1207.00000 1216.00000 1226.00000 1237.00000 1251.00000 1263.00000 1276.00000 1286.00000 1298.00000 1309.00000 1321.00000 1331.00000 1340.00000 1346.00000 1351.00000 1353.00000 1354.00000 1353.00000 1350.00000 1346.00000 1342.00000 1338.00000 1335.00000 1333.00000 1329.00000 1322.00000 1313.00000 1307.00000 1302.00000 1296.00000 1289.00000 1282.00000 1279.00000 1275.00000 1272.00000 1267.00000 1262.00000 1260.00000 1263.00000 1268.00000 1272.00000 1277.00000 1282.00000 1291.00000 1298.00000 1305.00000 1314.00000 1322.00000 1326.00000 1329.00000 1334.00000 1341.00000 1350.00000 1361.00000 1367.00000 1371.00000 1376.00000 1380.00000 1386.00000 1393.00000 1399.00000 1414.00000 1434.00000 1452.00000 1461.00000
867.00000 861.00000 855.00000 850.00000 841.00000 833.00000 826.00000 818.00000 809.00000 801.00000 786.00000 777.00000 771.00000 772.00000 774.00000 776.00000 779.00000 782.00000 784.00000 784.00000 783.00000 780.00000 773.00000 776.00000 778.00000 771.00000 779.00000 785.00000 788.00000 786.00000 784.00000 781.00000 781.00000 786.00000 791.00000 791.00000 792.00000 795.00000 797.00000 793.00000 788.00000 781.00000 776.00000 773.00000 770.00000 766.00000 763.00000 760.00000 756.00000 760.00000 763.00000 766.00000 769.00000 766.00000 762.00000 758.00000 756.00000 755.00000 754.00000 753.00000 751.00000 750.00000 749.00000 750.00000 751.00000 752.00000 753.00000 756.00000 761.00000 763.00000 765.00000 768.00000 771.00000 774.00000 776.00000 778.00000 787.00000 799.00000 802.00000 805.00000 799.00000 794.00000 792.00342 792.00439 795.00000 802.00000 807.00000 811.00000 814.00000 817.00000 814.00000 819.00000 826.00000 832.00000 839.00000 846.00000 855.00000 860.00000 862.00000 863.00000 863.00000 863.00000 863.00000 868.00000 874.00000 879.00000 884.00000 889.00000 893.00000 899.00000 905.00000 912.00000 918.00000 927.00000 937.00000 944.00000 949.00000 952.00000 956.00000 962.00000 969.00000 975.00000 981.00000 982.00000 983.00000 986.00000 987.00000 992.00000 994.00000 997.00000 999.00000 1001.00000 1001.00000 997.00000 990.00000 982.00000 972.00000 963.00000 955.00000 951.00000 954.00000 957.00000 956.00000 955.00000 951.00000 956.00000 962.00000 968.00000 973.00000 978.00000 988.00000 995.00000 1000.00000 1004.00000 1005.00000 1004.00000 1004.00000 1005.00000 1014.00000 1025.00000 1039.00000 1048.00000 1057.00000 1062.00000 1066.00000 1067.00000 1068.00000 1068.00000 1066.00000 1065.00000 1064.00000 1065.00000 1069.00000 1071.00000 1072.00000 1070.00000 1063.00000 1061.00000 1071.00000 1082.00000 1096.00000 1108.00000 1119.00000 1140.00000 1148.00000 1147.00000 1147.00000 1148.00000 1149.00000 1149.00000 1145.00000 1142.00000 1138.00000 1134.00000 1126.00000 1118.00000 1111.00000 1115.00000 1125.00000 1136.00000 1141.00000 1141.00000 1141.00000 1140.00000 1138.00000 1134.00000 1138.00000 1152.00000 1168.00000 1185.00000 1202.00000 1212.00000 1221.00000 1232.00000 1244.00000 1256.00000 1270.00000 1282.00000 1292.00000 1304.00000 1316.00000 1330.00000 1341.00000 1349.00000 1354.00000 1359.00000 1361.00000 1364.00000 1364.00000 1361.00000 1357.00000 1354.00000 1349.00000 1346.00000 1343.00000 1338.00000 1332.00000 1325.00000 1317.00000 1312.00000 1306.00000 1301.00000 1296.00000 1290.00000 1285.00000 1281.00000 1276.00000 1271.00000 1268.00000 1269.00000 1270.00000 1271.00000 1272.00000 1275.00000 1281.00000 1289.00000 1294.00000 1298.00000 1301.00000 1303.00000 1306.00000 1315.00000 1327.00000 1337.00000 1348.00000 1358.00000 1363.00000 1367.00000 1371.00000 1380.00000 1388.00000 1396.00000 1409.00000 1425.00000 1443.00000 1454.00000
860.00000 854.00000 849.00000 845.00000 837.00000 829.00000 822.00000 816.00000 809.00000 802.00000 793.00000 783.00000 777.00000 765.00000 766.00000 768.00000 772.00000 776.00000 778.00000 778.00000 776.00000 773.00000 765.00000 768.00000 768.00000 765.00000 774.00000 779.00000 782.00000 781.00000 777.00000 771.00000 774.00000 780.00000 784.00000 786.00000 788.00000 792.00000 794.00000 789.00000 784.00000 778.00000 775.00000 771.00000 768.00000 765.00000 762.00000 758.00000 754.00000 757.00000 761.00000 764.00000 766.00000 764.00000 760.00000 755.00000 754.00000 753.00000 751.00000 750.00000 749.00000 748.00000 748.00000 749.00000 751.00000 752.00000 754.00000 756.00000 761.00000 764.00000 768.00000 771.00000 775.00000 778.00000 780.00000 783.00000 795.00000 804.00000 810.00000 812.00000 808.00000 796.00000 794.00000 796.00000 801.00000 806.00000 811.00000 817.00000 821.00000 825.00000 826.00000 827.00000 828.00000 831.00000 837.00000 849.00000 859.00000 864.00000 867.00000 869.00000 870.00000 870.00000 868.00000 867.00000 874.00000 881.00000 887.00000 892.00000 897.00000 902.00000 907.00000 912.00000 917.00000 926.00000 936.00000 943.00000 949.00000 954.00000 959.00000 967.00000 975.00000 982.00000 987.00000 991.00000 997.00000 1001.00000 1003.00000 1004.00000 1006.00000 1007.00000 1008.00000 1010.00000 1007.00000 1003.00000 996.00000 987.00000 976.00000 964.00000 956.00000 954.00000 959.00000 962.00000 962.00000 961.00000 957.00000 958.00000 965.00000 971.00000 977.00000 985.00000 995.00000 1003.00000 1007.00000 1011.00000 1014.00000 1013.00000 1015.00000 1017.00000 1019.00000 1028.00000 1040.00000 1052.00000 1061.00000 1068.00000 1072.00000 1075.00000 1076.00000 1076.00000 1076.00000 1077.00000 1077.00000 1078.00000 1080.00000 1082.00000 1083.00000 1083.00000 1078.00000 1072.00000 1070.00000 1082.00000 1097.00000 1107.00000 1119.00000 1135.00000 1148.00000 1157.00000 1160.00000 1161.00000 1161.00000 1158.00000 1156.00000 1151.00000 1146.00000 1140.00000 1132.00000 1124.00000 1117.00000 1119.00000 1130.00000 1141.00000 1148.00000 1149.00000 1149.00000 1147.00000 1145.00000 1143.00000 1139.00000 1153.00000 1172.00000 1189.00000 1203.00000 1214.00000 1225.00000 1236.00000 1249.00000 1261.00000 1276.00000 1287.00000 1297.00000 1308.00000 1320.00000 1336.00000 1347.00000 1357.00000 1365.00000 1373.00000 1379.00000 1378.00000 1376.00000 1373.00000 1370.00000 1366.00000 1360.00000 1356.00000 1353.00000 1348.00000 1342.00000 1335.00000 1328.00000 1320.00000 1315.00000 1311.00000 1306.00000 1302.00000 1297.00000 1292.00000 1285.00000 1279.00000 1276.00000 1276.00000 1278.00000 1280.00000 1280.00000 1281.00000 1282.00000 1282.00000 1288.00000 1293.00000 1294.00000 1295.00000 1298.00000 1300.00000 1318.00000 1329.00000 1336.00000 1344.00000 1352.00000 1357.00000 1363.00000 1372.00000 1384.00000 1394.00000 1408.00000 1420.00000 1435.00000 1447.00000
853.00000 847.00000 843.00000 838.00000 831.00000 823.00000 817.00000 812.00000 809.00000 803.00000 796.00000 789.00000 781.00000 768.00000 757.00000 761.00000 766.00000 769.00000 772.00000 771.00000 770.00000 766.00000 759.00000 756.00000 756.00000 761.00000 768.00000 771.00000 773.00000 769.00000 767.00000 766.00000 771.00000 774.00000 777.00000 782.00000 786.00000 789.00000 791.00000 787.00000 783.00000 777.00000 771.00000 769.00000 766.00000 762.00000 760.00000 755.00000 751.00000 756.00000 760.00000 763.00000 763.00000 761.00000 758.00000 753.00000 751.00000 750.00000 749.00000 748.00000 746.00000 746.00000 749.00000 751.00000 752.00000 753.00000 754.00000 758.00000 762.00000 767.00000 771.00000 775.00000 779.00000 784.00000 790.00000 793.00000 805.00000 813.00000 818.00000 819.00000 818.00000 811.00000 808.00000 803.00000 805.00000 811.00000 817.00000 823.00000 830.00000 835.00000 839.00000 839.00000 839.00000 839.00000 839.00000 850.00000 861.00000 867.00000 872.00000 874.00000 876.00000 877.00000 875.00000 872.00000 872.00000 878.00000 885.00000 890.00000 900.00000 903.00000 907.00000 910.00000 914.00000 923.00000 932.00000 940.00000 946.00000 953.00000 961.00000 970.00000 980.00000 986.00000 992.00000 998.00000 1003.00000 1008.00000 1010.00000 1012.00000 1016.00000 1017.00000 1018.00000 1016.00000 1012.00000 1007.00000 1002.00000 993.00000 981.00000 966.00000 957.00000 959.00000 963.00000 966.00000 968.00000 967.00000 967.00000 965.00000 968.00000 974.00000 981.00000 991.00000 1002.00000 1010.00000 1014.00000 1018.00000 1022.00000 1027.00000 1029.00000 1032.00000 1029.00000 1032.00000 1042.00000 1055.00000 1065.00000 1073.00000 1079.00000 1085.00000 1086.00000 1088.00000 1089.00000 1090.00000 1091.00000 1091.00000 1091.00000 1091.00000 1092.00000 1090.00000 1087.00000 1079.00000 1074.00000 1084.00000 1099.00000 1109.00000 1119.00000 1134.00000 1150.00000 1160.00000 1166.00000 1169.00000 1169.00000 1167.00000 1163.00000 1158.00000 1152.00000 1146.00000 1138.00000 1130.00000 1123.00000 1124.00000 1132.00000 1144.00000 1153.00000 1157.00000 1156.00000 1155.00000 1152.00000 1149.00000 1147.00000 1156.00000 1173.00000 1189.00000 1203.00000 1216.00000 1229.00000 1239.00000 1252.00000 1266.00000 1281.00000 1292.00000 1302.00000 1313.00000 1325.00000 1340.00000 1351.00000 1361.00000 1373.00000 1383.00000 1389.00000 1391.00000 1390.00000 1385.00000 1383.00000 1380.00000 1375.00000 1370.00000 1365.00000 1359.00000 1353.00000 1346.00000 1340.00000 1332.00000 1327.00000 1321.00000 1316.00000 1311.00000 1306.00000 1301.00000 1295.00000 1289.00000 1286.00000 1284.00000 1286.00000 1288.00000 1288.00000 1289.00000 1288.00000 1287.00000 1286.00000 1287.00000 1291.00000 1293.00000 1296.00000 1299.00000 1309.00000 1319.00000 1326.00000 1333.00000 1339.00000 1346.00000 1354.00000 1365.00000 1379.00000 1393.00000 1406.00000 1417.00000 1428.00000 1439.00000
851.00000 843.00000 835.00000 828.00000 822.00000 815.00000 809.00000 805.00000 804.00000 800.00000 793.00000 787.00000 780.00000 769.00000 757.00000 751.00000 760.00000 763.00000 765.00000 765.00000 764.00000 760.00000 754.00000 748.00000 747.00000 752.00000 759.00000 762.00000 762.00000 758.00000 758.00000 763.00000 766.00000 769.00000 775.00000 780.00000 783.00000 787.00000 789.00000 787.00000 783.00000 776.00000 768.00000 764.00000 763.00000 761.00000 757.00000 753.00000 749.00000 753.00000 758.00000 760.00000 760.00000 758.00000 755.00000 751.00000 748.00000 747.00000 746.00000 745.00000 745.00000 748.00000 750.00000 752.00000 754.00000 755.00000 756.00000 760.00000 764.00000 769.00000 774.00000 778.00000 784.00000 790.00000 795.00000 803.00000 813.00000 821.00000 824.00000 826.00000 825.00000 822.00000 815.00000 810.00000 808.00000 814.00000 821.00000 830.00000 838.00000 844.00000 847.00000 849.00000 849.00000 849.00000 850.00000 853.00000 861.00000 867.00000 873.00000 879.00000 882.00000 882.00000 881.00000 878.00000 875.00000 877.00000 887.00000 899.00000 902.00000 906.00000 909.00000 913.00000 917.00000 923.00000 930.00000 936.00000 943.00000 951.00000 961.00000 971.00000 981.00000 988.00000 995.00000 1001.00000 1008.00000 1013.00000 1018.00000 1020.00000 1022.00000 1023.00000 1023.00000 1021.00000 1016.00000 1010.00000 1005.00000 997.00000 985.00000 973.00000 963.00000 962.00000 965.00000 969.00000 972.00000 973.00000 976.00000 976.00000 977.00000 980.00000 988.00000 997.00000 1008.00000 1015.00000 1022.00000 1029.00000 1034.00000 1040.00000 1042.00000 1044.00000 1041.00000 1040.00000 1042.00000 1053.00000 1063.00000 1074.00000 1086.00000 1096.00000 1100.00000 1101.00000 1102.00000 1104.00000 1106.00000 1105.00000 1103.00000 1103.00000 1101.00000 1099.00000 1095.00000 1086.00000 1078.00000 1086.00000 1101.00000 1111.00000 1121.00000 1134.00000 1149.00000 1163.00000 1170.00000 1176.00000 1177.00000 1175.00000 1171.00000 1165.00000 1158.00000 1152.00000 1143.00000 1136.00000 1128.00000 1127.00000 1135.00000 1150.00000 1160.00000 1167.00000 1167.00000 1163.00000 1159.00000 1156.00000 1155.00000 1161.00000 1176.00000 1191.00000 1206.00000 1218.00000 1231.00000 1244.00000 1257.00000 1270.00000 1284.00000 1295.00000 1306.00000 1317.00000 1330.00000 1342.00000 1352.00000 1364.00000 1380.00000 1389.00000 1396.00000 1403.00000 1403.00000 1398.00000 1394.00000 1391.00000 1387.00000 1383.00000 1380.00000 1373.00000 1367.00000 1360.00000 1353.00000 1346.00000 1338.00000 1332.00000 1325.00000 1321.00000 1316.00000 1312.00000 1306.00000 1300.00000 1294.00000 1291.00000 1294.00000 1296.00000 1296.00000 1296.00000 1294.00000 1293.00000 1292.00000 1293.00000 1297.00000 1297.00000 1298.00000 1299.00000 1303.00000 1312.00000 1318.00000 1324.00000 1331.00000 1339.00000 1348.00000 1358.00000 1374.00000 1389.00000 1402.00000 1412.00000 1421.00000 1431.00000
